248.601562 249.138458 249.616302 250.003693 250.292786 250.492645 250.623459 250.711273 250.783615 250.865662 250.977341 251.130890 251.329422 251.565857 251.822937 252.073639 252.282562 252.407837 252.403824 252.224564 251.827896 251.180298 250.262405 249.075378 247.647812 246.043442 244.353210 242.627441 240.884857 239.127716 237.346725 235.525467 233.644165 231.682983 229.624695 227.456985 225.173935 222.777115 220.276230 217.688934 215.040375 212.361938 209.689819 207.062500 204.518250 202.091522 199.809311 197.686783 195.721863 193.890518 192.139755 190.395706 188.621887 186.812454 184.978363 183.142380 181.334595 179.588425 177.937256 176.411438 175.036194 173.829666 172.801666 171.953232 171.276184 170.753799 170.361542 170.068756 169.840637 169.640839 169.434509 169.192245 168.894058 168.534317 168.126846 167.711334 167.352112 167.100586 166.980606 166.995300 167.132370 167.369186 167.676849 168.023895 168.379730 168.716827 169.013443 169.254410 169.432449 169.548676 169.612564 169.640533 169.655930 169.686081 169.760483 169.907669 170.152344 170.510925 170.986542 171.564972 172.207977 172.884476 173.672226 174.647568 175.854065 177.308121 179.004059 180.918930 183.016861 185.253067 187.577362 189.937515 192.281952 194.562271 196.735214 198.764389 200.621490 202.287247 203.751831 205.015030 206.085983 206.982407 207.729691 208.359299 208.907028 209.410812 209.922379 210.539658 211.349136 212.411270 213.762329 215.416519 217.368103 219.593597 222.054108 224.697861 227.462448 230.277725 233.068314 235.756500 238.265030 240.520142 242.454559 244.010818 245.144287 245.826721 246.049591 245.827606 245.202362 244.246155 243.065659 241.774460 240.395798 238.942841 237.442642 235.930725 234.446182 233.027588 231.709488 230.519516 229.476242 228.587677 227.850357 227.249146 226.757614 226.339279 225.949219 225.536560 225.047577 224.429291 223.634003 222.624268 221.378540 219.897614 218.211609 216.387650 214.489426 212.438675 210.159821 207.620361 204.822708 201.796936 198.593597 195.277740 191.922775 188.605972 185.403564 182.387268 179.620697 177.156998 175.036896 173.286835 171.919006 170.930313 170.303558 170.007629 170.000381 170.229538 170.636871 171.160324 171.739731 172.342361 173.011581 173.764954 174.578674 175.399643 176.156204 176.767792 177.153137 177.237289 176.957428 176.267227 175.140167 173.571411 171.578568 169.200974 166.497971 163.545685 160.432617 157.254257 154.105728 151.073898 148.227798 145.608002 143.214493 140.993515 138.838364 136.669785 134.463470 132.234711 130.027542 127.904587 125.938408 124.203812 122.771263 121.701622 121.041916 120.822159 121.053574 121.727707 122.816833 124.275444 126.042900 128.047272 130.210297 132.453262 134.704559 136.907883 139.031723 141.080215 143.104736 145.163391 147.159348 148.981979 150.553940 151.827438
249.967941 250.464935 250.896545 251.226654 251.444260 251.556778 251.583939 251.552567 251.491821 251.429443 251.388412 251.384674 251.425186 251.507019 251.616943 251.731888 251.819962 251.842377 251.755844 251.515961 251.081085 250.417007 249.502380 248.334824 246.937668 245.367615 243.709915 242.020828 240.326050 238.632660 236.934128 235.215073 233.455215 231.632889 229.727921 227.724167 225.611221 223.385696 221.052094 218.622803 216.117935 213.564224 210.993713 208.441605 205.943848 203.533813 201.238754 199.075745 197.046387 195.132278 193.288315 191.447556 189.569611 187.643616 185.677460 183.692566 181.719208 179.792297 177.947845 176.219727 174.637390 173.223755 171.993729 170.953506 170.099976 169.421249 168.897110 168.500595 168.199646 167.959671 167.746338 167.529236 167.285843 167.006058 166.697388 166.390823 166.141876 165.999710 165.987457 166.107391 166.346024 166.679413 167.077286 167.506714 167.935623 168.335159 168.682175 168.960327 169.161346 169.285507 169.341675 169.345993 169.321716 169.296463 169.300400 169.363037 169.510376 169.760620 170.119049 170.573975 171.090118 171.640305 172.307938 173.174240 174.286331 175.662933 177.299515 179.173355 181.247879 183.476898 185.808121 188.186798 190.558426 192.871445 195.079346 197.142548 199.029755 200.718933 202.198120 203.465515 204.529404 205.407684 206.126938 206.721100 207.229858 207.696579 208.177872 208.768723 209.551727 210.584366 211.901031 213.514816 215.419617 217.592117 219.994186 222.575073 225.273773 228.021698 230.745132 233.368027 235.814774 238.013092 239.897003 241.410049 242.508331 243.163940 243.368210 243.135391 242.505981 241.550720 240.374115 239.087448 237.712738 236.262619 234.764099 233.252853 231.768509 230.350357 229.033798 227.847473 226.811035 225.933594 225.212692 224.634247 224.172729 223.792389 223.448868 223.091675 222.667160 222.122208 221.408646 220.488174 219.338104 217.957733 216.375183 214.655212 212.859741 210.912384 208.739655 206.310471 203.628006 200.722488 197.644073 194.456985 191.233459 188.049179 184.978561 182.091385 179.449265 177.103226 175.092010 173.440231 172.158539 171.242538 170.674225 170.422195 170.444580 170.690201 171.102615 171.622543 172.193634 172.787582 173.450790 174.202515 175.019699 175.849167 176.618607 177.246262 177.649277 177.750946 177.486465 176.807526 175.685715 174.114441 172.109726 169.709732 166.972885 163.974838 160.804123 157.556717 154.328735 151.208603 148.267502 145.548660 143.055283 140.737381 138.490677 136.231934 133.932510 131.605072 129.292191 127.056274 124.970634 123.111572 121.551773 120.354774 119.570557 119.232338 119.354530 119.931801 120.939278 122.333992 124.057343 126.038826 128.200928 130.464859 132.758026 135.022186 137.222748 139.359619 141.478714 143.633224 145.727570 147.653488 149.335342 150.726410
251.170944 251.631546 252.019791 252.294312 252.440674 252.464386 252.384811 252.229477 252.029480 251.815262 251.613358 251.443634 251.317459 251.236450 251.191895 251.165085 251.128098 251.045547 250.876846 250.579330 250.111954 249.439865 248.539520 247.404663 246.052933 244.533142 242.924194 241.288162 239.657806 238.044998 236.446030 234.846542 233.225693 231.559891 229.825958 228.003815 226.078430 224.041321 221.891678 219.636536 217.290756 214.876312 212.420990 209.956696 207.516953 205.134048 202.835510 200.640396 198.554108 196.564117 194.633453 192.702286 190.726151 188.688858 186.594986 184.464447 182.327652 180.220917 178.182968 176.251297 174.459717 172.836136 171.400681 170.164978 169.131317 168.292862 167.633987 167.131638 166.756775 166.476746 166.257751 166.068512 165.883896 165.689224 165.485306 165.294144 165.161743 165.134186 165.233322 165.460068 165.799606 166.226776 166.709976 167.215134 167.709045 168.161819 168.549454 168.854858 169.069153 169.192184 169.232620 169.206528 169.137421 169.053314 168.985107 168.963226 169.015015 169.160172 169.405884 169.742645 170.137756 170.567520 171.120895 171.883926 172.907211 174.211655 175.793900 177.631317 179.686584 181.912018 184.253265 186.652985 189.053741 191.400848 193.644608 195.742233 197.659515 199.371841 200.865067 202.135910 203.191986 204.051346 204.741898 205.300079 205.769485 206.198929 206.649719 207.213623 207.968796 208.969543 210.248001 211.815948 213.666733 215.777206 218.109985 220.615479 223.234283 225.899643 228.539841 231.080902 233.449295 235.574661 237.392822 238.848770 239.899643 240.518219 240.695923 240.446487 239.809189 238.852798 237.679062 236.396133 235.024918 233.577805 232.081726 230.572632 229.090515 227.675262 226.363022 225.183243 224.156448 223.292648 222.590363 222.036301 221.605774 221.263702 220.966293 220.663406 220.301544 219.827499 219.192719 218.358231 217.300278 216.016724 214.533798 212.914001 211.217621 209.370911 207.303207 204.985245 202.421143 199.641266 196.695236 193.646118 190.564514 187.524124 184.597092 181.850693 179.343979 177.125458 175.231476 173.684448 172.493134 171.651718 171.141281 170.930130 170.976837 171.231506 171.639877 172.145889 172.697586 173.271515 173.916611 174.653412 175.459579 176.282089 177.048325 177.675842 178.080811 178.185226 177.922882 177.243927 176.118362 174.538025 172.517487 170.093597 167.323730 164.282761 161.058777 157.747803 154.446487 151.244308 148.214157 145.401627 142.813095 140.402527 138.068497 135.723862 133.335663 130.913605 128.498672 126.152824 123.949883 121.967514 120.280457 118.954811 118.043549 117.583107 117.591248 118.065910 118.985344 120.309387 121.981789 123.933861 126.089104 128.368988 130.700180 133.022522 135.298431 137.523346 139.737335 141.988098 144.181427 146.211533 148.004532 149.514893
252.098465 252.524780 252.871689 253.092545 253.169403 253.105927 252.920975 252.642960 252.304840 251.939957 251.578323 251.243988 250.952805 250.711014 250.514648 250.349442 250.191605 250.009293 249.764694 249.416977 248.925751 248.255478 247.380386 246.290237 244.996689 243.540466 241.993698 240.424133 238.871475 237.352402 235.865891 234.398590 232.929047 231.431763 229.880493 228.251221 226.524246 224.686035 222.730362 220.658890 218.481277 216.214676 213.882675 211.513718 209.139053 206.789749 204.493759 202.272095 200.134033 198.073013 196.060287 194.043335 191.973587 189.829437 187.612213 185.340195 183.043854 180.761002 178.532928 176.400742 174.402679 172.571533 170.932800 169.503555 168.291458 167.294861 166.502823 165.896225 165.449142 165.130890 164.908356 164.749390 164.626205 164.519577 164.423584 164.351059 164.338364 164.428360 164.641571 164.977539 165.420135 165.942886 166.512970 167.095123 167.655106 168.162018 168.591019 168.924286 169.152344 169.274689 169.299744 169.243591 169.129929 168.987244 168.847107 168.740921 168.697281 168.737442 168.870483 169.089096 169.363144 169.672455 170.111542 170.771271 171.705704 172.937973 174.465866 176.266846 178.302872 180.524734 182.875992 185.296692 187.726456 190.107437 192.386642 194.518158 196.464722 198.199066 199.704926 200.977509 202.023621 202.861588 203.520599 204.039658 204.466324 204.854965 205.271713 205.805069 206.528702 207.493622 208.729675 210.247299 212.039246 214.082581 216.340622 218.765076 221.298111 223.874924 226.425903 228.879272 231.163666 233.210800 234.958344 236.352859 237.352707 237.931351 238.080322 237.812820 237.166870 236.209167 235.038361 233.759354 232.391846 230.947968 229.454575 227.947800 226.468018 225.055634 223.747467 222.573746 221.555847 220.704697 220.019669 219.488403 219.087006 218.781143 218.527603 218.276672 217.975082 217.569611 217.011368 216.260727 215.292953 214.104446 212.719589 211.198471 209.599731 207.852417 205.888794 203.681534 201.235748 198.581909 195.769104 192.859177 189.921082 187.026382 184.244843 181.641174 179.271759 177.182449 175.407104 173.965851 172.865524 172.098785 171.645798 171.474564 171.544083 171.805817 172.207733 172.697174 173.226608 173.777618 174.401611 175.120422 175.912460 176.724930 177.485077 178.109863 178.514572 178.620056 178.358749 177.679306 176.550156 174.961563 172.926590 170.480652 167.679977 164.598526 161.323807 157.951675 154.579193 151.296783 148.178894 145.273560 142.590332 140.087311 137.666168 135.235809 132.758820 130.241943 127.724442 125.267769 122.946213 120.838799 119.022285 117.565384 116.524094 115.938171 115.828743 116.197182 117.024979 118.274902 119.893196 121.813049 123.959160 126.253296 128.621429 131.001556 133.352966 135.666580 137.976349 140.324326 142.617554 144.752701 146.657715 148.288208
252.706482 253.107178 253.421234 253.596481 253.611237 253.467056 253.182144 252.785568 252.312134 251.797913 251.276611 250.776474 250.318069 249.912598 249.561096 249.254166 248.972595 248.688477 248.367233 247.970215 247.458054 246.794708 245.952225 244.916260 243.692154 242.311844 240.839798 239.348907 237.885468 236.470703 235.106323 233.779938 232.469589 231.148010 229.786072 228.355988 226.833649 225.200516 223.445206 221.564087 219.561691 217.450363 215.249542 212.984207 210.683182 208.376389 206.091949 203.852798 201.672028 199.548965 197.463089 195.369263 193.214905 190.973175 188.641876 186.237656 183.790802 181.340332 178.929932 176.604156 174.405380 172.371277 170.532593 168.911835 167.522171 166.367172 165.440735 164.727982 164.206329 163.847290 163.618683 163.487732 163.424225 163.404404 163.415543 163.461166 163.567734 163.775238 164.103226 164.550095 165.098602 165.721024 166.383240 167.048782 167.682144 168.251266 168.730225 169.100204 169.350891 169.481125 169.498825 169.419830 169.267838 169.071533 168.863129 168.674911 168.536713 168.471405 168.490143 168.588089 168.738098 168.923874 169.245773 169.799637 170.643234 171.802170 173.275513 175.041031 177.060059 179.281952 181.648148 184.096008 186.562103 188.985184 191.308792 193.483459 195.468628 197.234055 198.760925 200.042603 201.084900 201.906158 202.536789 203.018387 203.402771 203.750305 204.132568 204.634735 205.325943 206.253769 207.445663 208.910614 210.640793 212.613388 214.792465 217.131027 219.572952 222.055466 224.511169 226.870667 229.064941 231.028000 232.699524 234.027863 234.972687 235.508301 235.626450 235.339813 234.685059 233.726593 232.559784 231.285782 229.922928 228.482758 226.991928 225.486481 224.006943 222.594116 221.285339 220.111603 219.095108 218.247726 217.569870 217.050232 216.665939 216.383698 216.161163 215.949356 215.695557 215.346802 214.854141 214.177490 213.291199 212.190186 210.896790 209.468292 207.961319 206.307602 204.442535 202.340775 200.008530 197.476486 194.793182 192.019348 189.222198 186.471176 183.833649 181.371613 179.138763 177.178207 175.521149 174.185333 173.175522 172.482803 172.086243 171.953476 172.043930 172.310303 172.702911 173.172485 173.676178 174.200775 174.800598 175.499146 176.275925 177.078796 177.835022 178.461273 178.872025 178.987061 178.737366 178.069962 176.951477 175.370255 173.337463 170.886719 168.072495 164.967407 161.657898 158.239258 154.808533 151.456818 148.260147 145.268982 142.496445 139.905411 137.401291 134.888840 132.325745 129.715393 127.095131 124.525703 122.081749 119.843674 117.890358 116.293289 115.111732 114.389023 114.150040 114.399963 115.123917 116.288010 117.841331 119.719383 121.848312 124.150421 126.551125 128.986542 131.412720 133.815613 136.222565 138.669235 141.063629 143.304794 145.322235 147.072647
252.967972 253.358551 253.654953 253.799118 253.765198 253.552185 253.177231 252.669708 252.066010 251.404877 250.723618 250.054886 249.424194 248.848114 248.333206 247.875626 247.461334 247.067154 246.662445 246.211456 245.676346 245.021042 244.215576 243.241364 242.096878 240.804352 239.419189 238.018311 236.654037 235.351791 234.115875 232.934952 231.786804 230.642700 229.471039 228.240662 226.923416 225.496246 223.942917 222.254807 220.431534 218.480850 216.417984 214.264557 212.046829 209.793365 207.532379 205.288422 203.078140 200.906525 198.761108 196.604065 194.379181 192.054398 189.624054 187.102798 184.520462 181.916794 179.337524 176.830154 174.440948 172.212128 170.179504 168.370972 166.805176 165.491119 164.427826 163.604874 163.003448 162.597763 162.356979 162.248093 162.238754 162.300919 162.415100 162.575211 162.797516 163.119736 163.561050 164.119247 164.776123 165.502823 166.264008 167.021759 167.739105 168.382492 168.924515 169.344940 169.632172 169.783920 169.807129 169.717026 169.536819 169.295227 169.024734 168.758423 168.527374 168.356186 168.258347 168.231918 168.253357 168.310974 168.511185 168.955124 169.704590 170.787994 172.206085 173.937225 175.942368 178.169617 180.558334 183.043182 185.557510 188.036407 190.419556 192.653580 194.694046 196.507156 198.071014 199.376587 200.428238 201.243927 201.855103 202.306030 202.653046 202.963257 203.314468 203.788666 204.450241 205.343124 206.492233 207.904968 209.572739 211.472809 213.569977 215.818558 218.164230 220.546387 222.900055 225.158432 227.255142 229.126724 230.715240 231.971100 232.855591 233.344055 233.428604 233.121475 232.457870 231.499710 230.338623 229.071457 227.714844 226.279465 224.791306 223.286011 221.803955 220.385971 219.069763 217.886871 216.860321 216.002960 215.316391 214.790604 214.404114 214.125015 213.912323 213.718338 213.491364 213.179184 212.733215 212.113281 211.292953 210.265686 209.051514 207.704346 206.277985 204.706985 202.929947 200.923767 198.695816 196.277176 193.715912 191.071640 188.409912 185.798050 183.300842 180.977585 178.879074 177.045532 175.505325 174.273666 173.352997 172.732651 172.390381 172.293381 172.401306 172.668137 173.046494 173.490692 173.962753 174.455093 175.025421 175.699554 176.458679 177.251831 178.006897 178.640503 179.066666 179.204147 178.982498 178.346924 177.261856 175.713318 173.709946 171.282791 168.483948 165.383789 162.066895 158.627289 155.161331 151.760422 148.501862 145.438705 142.588150 139.918823 137.341034 134.754944 132.112701 129.413788 126.693146 124.010536 121.440849 119.065773 116.966454 115.217346 113.881340 113.005760 112.619850 112.733093 113.334900 114.395348 115.867081 117.688416 119.787483 122.087517 124.513557 126.999947 129.499146 131.991745 134.497528 137.044708 139.541763 141.889801 144.019760 145.889053
252.855469 253.256256 253.555130 253.687805 253.623764 253.358871 252.908707 252.302521 251.577866 250.775909 249.937500 249.099701 248.293274 247.540527 246.854126 246.236404 245.679352 245.165375 244.668625 244.157043 243.595139 242.947250 242.181778 241.275726 240.220322 239.026871 237.740173 236.439682 235.182846 233.998734 232.894058 231.858673 230.870407 229.899536 228.912552 227.875549 226.757019 225.529968 224.173904 222.675690 221.030472 219.241623 217.320450 215.285141 213.159409 210.970291 208.745712 206.511581 204.287643 202.084091 199.896133 197.693054 195.415482 193.026489 190.516907 187.899139 185.202026 182.465668 179.737091 177.066238 174.502716 172.092850 169.877151 167.888702 166.151657 164.680450 163.479401 162.543045 161.856674 161.397751 161.137344 161.042740 161.079910 161.216904 161.427505 161.695908 162.027939 162.459839 163.011139 163.679596 164.446411 165.281784 166.149002 167.008621 167.821884 168.553345 169.173660 169.660629 170.000839 170.190247 170.234344 170.147079 169.950851 169.673950 169.348892 169.009323 168.687531 168.410019 168.192917 168.037704 167.925201 167.849091 167.922028 168.250610 168.900986 169.904770 171.264847 172.960602 174.952972 177.189087 179.606461 182.137100 184.711029 187.259521 189.718063 192.028854 194.143112 196.022827 197.642410 198.989792 200.067230 200.891907 201.495956 201.926285 202.244049 202.523758 202.850357 203.302780 203.940506 204.803635 205.914352 207.278214 208.885788 210.714218 212.728989 214.885712 217.131927 219.409302 221.655518 223.806580 225.799026 227.572311 229.071198 230.248505 231.067474 231.504807 231.553146 231.224350 230.552216 229.595856 228.442688 227.184708 225.836517 224.407654 222.923080 221.417572 219.930908 218.503632 217.173431 215.972183 214.923569 214.041458 213.328705 212.776855 212.366135 212.066483 211.838852 211.637299 211.411819 211.111542 210.688797 210.103668 209.329285 208.357712 207.206299 205.925079 204.564240 203.061035 201.357574 199.433121 197.296509 194.979233 192.529114 190.004684 187.469849 184.989746 182.626678 180.437042 178.468597 176.758484 175.332108 174.201752 173.367477 172.816483 172.525116 172.459839 172.580429 172.842087 173.199783 173.611481 174.044373 174.496918 175.030716 175.674484 176.411819 177.193527 177.948700 178.594528 179.044891 179.217773 179.041336 178.458817 177.432205 175.944672 174.001648 171.630951 168.881302 165.819916 162.528610 159.099182 155.626602 152.201904 148.903427 145.786835 142.873886 140.140121 137.501907 134.854584 132.143982 129.365036 126.549812 123.756691 121.060600 118.544441 116.291656 114.379959 112.876106 111.831963 111.281601 111.239487 111.700035 112.638000 114.010330 115.758774 117.814133 120.100967 122.544304 125.076714 127.646935 130.229584 132.835892 135.485428 138.086670 140.542419 142.784668 144.771347
252.344299 252.778671 253.103439 253.247833 253.176270 252.880981 252.375351 251.687943 250.857010 249.925781 248.938339 247.936188 246.955368 246.024277 245.162155 244.378128 243.670975 243.029526 242.433624 241.855835 241.263687 240.622681 239.899841 239.067963 238.110413 237.026718 235.849365 234.658615 233.515701 232.452759 231.478592 230.584381 229.748337 228.940353 228.125732 227.268692 226.335159 225.295090 224.124466 222.806396 221.332077 219.701035 217.920853 216.006531 213.979141 211.864014 209.688538 207.479446 205.259048 203.042160 200.830872 198.601273 196.291519 193.860382 191.295181 188.605911 185.819992 182.977066 180.124878 177.315033 174.599777 172.028870 169.647079 167.492355 165.594025 163.972031 162.636108 161.585968 160.811539 160.294006 160.006912 159.918503 159.993668 160.196884 160.495575 160.864136 161.298019 161.832626 162.488922 163.265091 164.142181 165.089539 166.069153 167.039810 167.960678 168.794006 169.507965 170.077881 170.487869 170.731598 170.812393 170.742523 170.542953 170.241135 169.869278 169.461456 169.051147 168.666840 168.327637 168.039001 167.786880 167.571121 167.510544 167.717194 168.261765 169.179489 170.475800 172.131638 174.108383 176.352646 178.800415 181.381241 184.021927 186.649872 189.196136 191.598190 193.802368 195.765976 197.459030 198.865768 199.985809 200.834915 201.445618 201.867233 202.165894 202.424072 202.734634 203.173691 203.795700 204.636810 205.716202 207.037460 208.590042 210.350861 212.285934 214.352112 216.498779 218.669968 220.806091 222.846222 224.730072 226.400314 227.804749 228.898956 229.648468 230.031616 230.041870 229.690887 229.010910 228.058182 226.915436 225.669327 224.332245 222.912399 221.433395 219.928726 218.437103 216.998306 215.649597 214.422882 213.342270 212.422501 211.667755 211.071213 210.615128 210.271713 210.004242 209.769241 209.518906 209.204376 208.779434 208.205002 207.454041 206.517273 205.409332 204.175735 202.862335 201.409058 199.761734 197.902206 195.840881 193.609955 191.257034 188.839737 186.420380 184.061951 181.824142 179.760406 177.915375 176.322952 175.005264 173.971603 173.219238 172.733093 172.487839 172.448975 172.576309 172.826111 173.155685 173.526779 173.912018 174.316223 174.805252 175.411148 176.120529 176.886673 177.640533 178.300415 178.780594 178.998627 178.881454 178.370377 177.424713 176.024368 174.171097 171.888657 169.221603 166.233109 163.001190 159.614502 156.165771 152.745041 149.431198 146.282516 143.325790 140.544373 137.862045 135.168976 132.404037 129.557114 126.656906 123.760002 120.941093 118.284149 115.874931 113.794456 112.113708 110.889389 110.160912 109.948334 110.251701 111.051155 112.308540 113.969872 115.969063 118.232666 120.685928 123.259804 125.899162 128.572144 131.280579 134.034271 136.741074 139.305191 141.659302 143.761520
251.415390 251.908142 252.283936 252.465561 252.412048 252.111526 251.574677 250.828690 249.911957 248.869263 247.747604 246.592636 245.445663 244.341278 243.305573 242.354996 241.495743 240.723770 240.025452 239.378738 238.755066 238.121674 237.444763 236.692947 235.841599 234.877625 233.819687 232.746857 231.722702 230.781494 229.933853 229.172256 228.475830 227.814682 227.153809 226.456512 225.687180 224.813736 223.809631 222.655090 221.338150 219.855057 218.210190 216.415497 214.489563 212.455826 210.340790 208.171509 205.972183 203.761368 201.547165 199.311874 196.992081 194.542953 191.948624 189.216446 186.371902 183.453598 180.509109 177.590836 174.752823 172.047516 169.523254 167.222244 165.178696 163.417847 161.954880 160.794846 159.932648 159.353622 159.034515 158.945007 159.049622 159.309845 159.687210 160.146469 160.672852 161.301880 162.056686 162.936569 163.922745 164.983917 166.080750 167.170074 168.208710 169.156189 169.977737 170.645645 171.140961 171.454437 171.586777 171.547882 171.356873 171.039886 170.628586 170.157272 169.660477 169.168869 168.704819 168.278305 167.881119 167.519943 167.319412 167.396729 167.827179 168.649857 169.873230 171.480286 173.433487 175.679443 178.153076 180.781952 183.489883 186.200531 188.840485 191.342361 193.647324 195.707489 197.488022 198.968903 200.146423 201.034485 201.665436 202.090790 202.381592 202.628525 202.933029 203.368622 203.984756 204.813553 205.871048 207.158630 208.664459 210.364975 212.226593 214.207214 216.258026 218.325394 220.352570 222.281769 224.056076 225.621582 226.929504 227.938416 228.616501 228.944046 228.915527 228.542557 227.855972 226.908951 225.779282 224.547852 223.224945 221.817398 220.347183 218.846191 217.351562 215.901825 214.533371 213.277664 212.158951 211.192566 210.383896 209.727844 209.208832 208.801559 208.472122 208.179886 207.879913 207.525894 207.073654 206.485397 205.734360 204.810196 203.724686 202.518463 201.232468 199.809280 198.198547 196.384918 194.380554 192.218521 189.946365 187.620911 185.302963 183.053421 180.929382 178.981323 177.250595 175.767731 174.551468 173.607864 172.931168 172.503830 172.298569 172.279755 172.407013 172.637573 172.931030 173.253021 173.581757 173.928665 174.363922 174.923172 175.596466 176.340164 177.087723 177.759247 178.269958 178.537491 178.487869 178.060638 177.212433 175.919693 174.180069 172.012726 169.457352 166.572189 163.430679 160.117401 156.721970 153.332748 150.028748 146.870605 143.890381 141.080124 138.371964 135.650909 132.848465 129.948914 126.977188 123.987793 121.054802 118.263115 115.700653 113.451782 111.591797 110.182503 109.268936 108.877220 109.013466 109.663834 110.795654 112.359741 114.293762 116.526642 118.984268 121.596138 124.303223 127.066841 129.878708 132.738007 135.551498 138.224365 140.689697 142.905533
250.057495 250.633347 251.085648 251.330948 251.322845 251.045029 250.504883 249.727692 248.751312 247.621460 246.387527 245.098892 243.801895 242.537247 241.337982 240.228119 239.221695 238.322357 237.523636 236.809677 236.156418 235.533600 234.906998 234.241425 233.504166 232.669052 231.739700 230.791824 229.889679 229.068588 228.340591 227.699539 227.125793 226.590500 226.059235 225.495453 224.863190 224.129517 223.266464 222.252426 221.073212 219.722534 218.202118 216.521332 214.696274 212.748489 210.703201 208.587234 206.425949 204.240570 202.044128 199.824326 197.517242 195.075439 192.480209 189.736191 186.866501 183.907990 180.907211 177.916443 174.990463 172.183578 169.546799 167.125931 164.959534 163.077744 161.501053 160.239883 159.294327 158.654358 158.300293 158.204025 158.330292 158.638367 159.084381 159.624039 160.232605 160.946701 161.792358 162.770554 163.863007 165.037949 166.254700 167.468048 168.632172 169.703506 170.643951 171.422226 172.015869 172.412140 172.608582 172.612244 172.439957 172.116226 171.671814 171.141006 170.559509 169.960129 169.368805 168.800491 168.253479 167.741745 167.395081 167.335205 167.641846 168.358139 169.495941 171.040878 172.957092 175.191849 177.679718 180.346786 183.114410 185.902817 188.634399 191.236923 193.646301 195.809250 197.685715 199.250916 200.497375 201.436493 202.100006 202.541107 202.835541 203.082199 203.391312 203.834137 204.455322 205.282944 206.329849 207.595001 209.065048 210.715759 212.513641 214.417542 216.380234 218.350342 220.273880 222.096252 223.763992 225.226807 226.439438 227.363800 227.970917 228.243286 228.176712 227.782913 227.091415 226.152359 225.038391 223.824432 222.518982 221.127686 219.670792 218.178192 216.685120 215.228333 213.842804 212.559082 211.401031 210.384338 209.515274 208.790359 208.196152 207.710022 207.301102 206.932007 206.561066 206.145004 205.642273 205.016891 204.242752 203.308716 202.223846 201.023758 199.744080 198.330002 196.735107 194.946945 192.979630 190.867233 188.657440 186.406433 184.173599 182.017822 179.993652 178.148605 176.520706 175.137024 174.012802 173.150665 172.541718 172.165649 171.993073 171.987045 172.106781 172.310379 172.559662 172.824097 173.087662 173.368500 173.740753 174.243637 174.870911 175.582504 176.314957 176.990814 177.526947 177.841599 177.860443 177.521530 176.779068 175.606049 173.995850 171.962692 169.540909 166.783218 163.757706 160.544113 157.228241 153.896027 150.626038 147.481033 144.498337 141.679092 138.964584 136.234787 133.413635 130.479675 127.453659 124.387672 121.354942 118.440948 115.735588 113.326431 111.293015 109.702286 108.605103 108.033768 108.000854 108.498825 109.500969 110.963333 112.827812 115.026070 117.485023 120.132950 122.906967 125.761490 128.677734 131.643631 134.564499 137.346207 139.921951 142.249329
248.268845 248.951294 249.504623 249.839783 249.905060 249.679489 249.166748 248.389572 247.384659 246.197906 244.880478 243.484909 242.062103 240.658554 239.314117 238.060410 236.919403 235.902863 235.011917 234.237350 233.560394 232.953690 232.383286 231.810501 231.194794 230.496780 229.704208 228.887207 228.108856 227.404465 226.786926 226.251495 225.780167 225.345856 224.915710 224.454453 223.927048 223.300919 222.547989 221.645981 220.579514 219.340637 217.929138 216.352203 214.623764 212.763382 210.794724 208.743790 206.636200 204.494858 202.336288 200.152664 197.880814 195.471786 192.904587 190.181137 187.321808 184.361038 181.343460 178.320221 175.345901 172.475479 169.761749 167.253235 164.992172 163.013092 161.341431 159.992920 158.972839 158.276093 157.887039 157.780380 157.921768 158.268997 158.773590 159.382843 160.062836 160.851944 161.779846 162.849625 164.043869 165.330460 166.667374 168.007248 169.301422 170.503006 171.570145 172.467682 173.169113 173.657883 173.927856 173.982895 173.837128 173.513107 173.040451 172.453369 171.788498 171.080994 170.360535 169.647354 168.946777 168.280350 167.781982 167.577057 167.749313 168.345917 169.382446 170.847687 172.708130 174.912491 177.395706 180.083191 182.894485 185.746994 188.559357 191.254791 193.764114 196.028625 198.002838 199.656982 200.979340 201.978302 202.684464 203.152176 203.461334 203.718689 204.043167 204.504150 205.141815 205.980316 207.029221 208.285004 209.732574 211.346756 213.093903 214.933517 216.819763 218.703278 220.532715 222.256561 223.824829 225.190842 226.312927 227.156540 227.695755 227.915451 227.813019 227.400482 226.706238 225.777435 224.681625 223.487808 222.203217 220.832642 219.394684 217.917084 216.432755 214.976151 213.580338 212.274353 211.081207 210.016357 209.086670 208.289902 207.614639 207.040863 206.540817 206.080582 205.622086 205.125473 204.552246 203.868698 203.049866 202.084198 200.978348 199.762939 198.468231 197.041946 195.441620 193.657837 191.706787 189.623657 187.456482 185.260910 183.095108 181.016083 179.075836 177.319016 175.780380 174.483475 173.439957 172.648941 172.098236 171.764679 171.616547 171.615372 171.719864 171.888824 172.086151 172.285141 172.475525 172.682053 172.982285 173.418610 173.988510 174.655762 175.360535 176.028488 176.578766 176.930969 177.011047 176.756119 176.118347 175.067520 173.592865 171.703583 169.428421 166.814178 163.923096 160.829483 157.614655 154.361481 151.147507 148.037155 145.072784 142.264709 139.563766 136.845230 134.025681 131.077744 128.017990 124.895721 121.783005 118.765625 115.935097 113.381912 111.189613 109.430099 108.159897 107.417610 107.222214 107.572662 108.448425 109.811043 111.606888 113.770767 116.230919 118.914703 121.755623 124.701241 127.722267 130.795151 133.823547 136.713837 139.398895 141.835724
246.058441 246.868561 247.545425 247.995193 248.161224 248.017868 247.564758 246.821564 245.823074 244.614716 243.248550 241.779617 240.262665 238.749512 237.286392 235.912247 234.656998 233.540482 232.571686 231.748459 231.057617 230.475449 229.968643 229.495651 229.008484 228.454849 227.806168 227.124863 226.470886 225.878387 225.360519 224.913849 224.522507 224.161728 223.801285 223.408356 222.950027 222.395462 221.717758 220.895172 219.912292 218.760529 217.438461 215.951660 214.312195 212.537613 210.649841 208.673477 206.633499 204.553329 202.451462 200.323547 198.108368 195.756805 193.246185 190.575851 187.763138 184.839417 181.846603 178.833664 175.853867 172.961823 170.211044 167.651825 165.329193 163.281433 161.538437 160.120911 159.039352 158.293655 157.872604 157.754166 157.905655 158.284180 158.837540 159.505569 160.246017 161.099792 162.100632 163.254181 164.544083 165.937988 167.392624 168.858398 170.283691 171.618042 172.815659 173.837158 174.651794 175.238800 175.588089 175.700012 175.585739 175.265610 174.767975 174.126694 173.379471 172.563705 171.712982 170.852982 169.996445 169.172546 168.517929 168.160492 168.187378 168.649643 169.566788 170.931213 172.712479 174.861542 177.314621 179.997314 182.828247 185.722778 188.596466 191.368530 193.965057 196.322159 198.389008 200.130661 201.530869 202.594650 203.350815 203.854248 204.188293 204.466782 204.816956 205.306747 205.972275 206.833969 207.898254 209.158966 210.599091 212.192261 213.904419 215.695343 217.520279 219.331635 221.080429 222.718048 224.197800 225.476547 226.516312 227.285995 227.762878 227.934433 227.799759 227.371429 226.676941 225.760681 224.685226 223.513947 222.253540 220.908554 219.496109 218.041702 216.575623 215.129623 213.734268 212.416504 211.197815 210.092926 209.108719 208.243774 207.488373 206.824890 206.228577 205.669006 205.111832 204.520920 203.861160 203.101532 202.218704 201.201141 200.053528 198.801880 197.471237 196.011795 194.385010 192.584518 190.628693 188.554031 186.408981 184.248886 182.130814 180.110016 178.236237 176.551224 175.086533 173.862289 172.886536 172.154846 171.651672 171.350861 171.218246 171.213715 171.295288 171.422256 171.560501 171.687057 171.797272 171.922302 172.142120 172.501617 173.001785 173.610397 174.271652 174.914871 175.462234 175.835434 175.961441 175.777222 175.233429 174.297256 172.954041 171.208252 169.083054 166.619232 163.872910 160.912552 157.814499 154.658005 151.518967 148.462906 145.536728 142.759583 140.091812 137.404663 134.607712 131.667953 128.597656 125.443237 122.275253 119.179443 116.248497 113.575409 111.247307 109.340645 107.917328 107.021851 106.679543 106.895691 107.655922 108.927330 110.660995 112.795029 115.259262 117.980530 120.888985 123.925766 127.051369 130.230957 133.366455 136.364502 139.157593 141.701752
243.446655 244.402298 245.222198 245.808884 246.101334 246.069351 245.708328 245.034393 244.079788 242.888657 241.513168 240.009949 238.436874 236.850220 235.302048 233.838120 232.495911 231.303223 230.276825 229.421768 228.730804 228.184174 227.749863 227.384018 227.031876 226.628830 226.130051 225.588196 225.058228 224.571899 224.142014 223.766403 223.431534 223.115784 222.792374 222.432068 222.005341 221.484390 220.844788 220.066620 219.135574 218.043457 216.788483 215.375214 213.814224 212.121201 210.316025 208.421371 206.460770 204.456924 202.428787 200.374283 198.235489 195.964478 193.537598 190.951874 188.221390 185.373901 182.447784 179.488907 176.548141 173.678619 170.933426 168.363617 166.016068 163.932007 162.145157 160.680801 159.554413 158.770859 158.323547 158.194244 158.352463 158.755432 159.348312 160.064590 160.854736 161.762726 162.826782 164.055298 165.433182 166.927979 168.495178 170.082962 171.636703 173.102280 174.429825 175.575607 176.504425 177.191147 177.621552 177.792313 177.711472 177.397034 176.875854 176.181519 175.352585 174.428757 173.447495 172.440109 171.426819 170.444229 169.630157 169.113602 168.984360 169.297028 170.075134 171.315109 172.990265 175.054611 177.446594 180.093048 182.912628 185.819656 188.727478 191.552063 194.215393 196.648865 198.796524 200.618332 202.093353 203.222839 204.033340 204.579498 204.947220 205.256393 205.641708 206.170181 206.874374 207.771393 208.864563 210.145111 211.593918 213.183167 214.878052 216.638321 218.419922 220.176651 221.861557 223.428635 224.834244 226.038605 227.007233 227.712540 228.134979 228.264709 228.102661 227.662262 226.970306 226.068741 225.015472 223.868698 222.635651 221.321243 219.941513 218.519745 217.083389 215.661087 214.280365 212.965454 211.735718 210.604401 209.577774 208.654755 207.826736 207.078110 206.386917 205.726044 205.064850 204.371048 203.613144 202.763153 201.799805 200.712173 199.503494 198.195801 196.809372 195.296768 193.623337 191.785736 189.804520 187.717621 185.574127 183.429123 181.338898 179.357056 177.531189 175.900375 174.493134 173.326202 172.404099 171.718872 171.251633 170.973175 170.846848 170.830688 170.881973 170.960266 171.033340 171.081665 171.106110 171.143753 171.275787 171.548615 171.966309 172.500549 173.099823 173.697693 174.220032 174.591446 174.740784 174.605667 174.136124 173.297379 172.071640 170.459015 168.477448 166.161865 163.562241 160.741074 157.769363 154.722244 151.673447 148.688843 145.819168 143.091690 140.475891 137.839691 135.086487 132.177963 129.122238 125.962807 122.768425 119.624298 116.623917 113.862106 111.429008 109.405067 107.856964 106.834679 106.369331 106.472275 107.135002 108.330086 110.013222 112.126022 114.600151 117.362144 120.339432 123.467224 126.696480 129.981689 133.223129 136.327591 139.227081 141.876450
240.465424 241.580475 242.559158 243.301697 243.743423 243.849915 243.612289 243.042709 242.170319 241.037140 239.694626 238.200043 236.613434 234.994644 233.400742 231.883560 230.487564 229.248001 228.189285 227.323517 226.649490 226.151779 225.800110 225.548965 225.337677 225.090363 224.746368 224.346741 223.939697 223.553406 223.199753 222.877640 222.576157 222.277359 221.958786 221.595795 221.163452 220.638184 219.999313 219.229996 218.318146 217.256973 216.045197 214.687073 213.192017 211.574051 209.850830 208.042709 206.170898 204.256195 202.316498 200.350784 198.305756 196.135971 193.817703 191.345856 188.731201 185.997452 183.178726 180.316895 177.459412 174.656815 171.960739 169.421875 167.087921 165.002213 163.201614 161.715347 160.563477 159.755798 159.290421 159.153122 159.316269 159.738068 160.362030 161.116531 161.946091 162.898087 164.015411 165.309372 166.766190 168.353455 170.025436 171.728165 173.403976 174.995163 176.447739 177.713623 178.753143 179.536728 180.046066 180.274033 180.225525 179.916092 179.371170 178.623886 177.713608 176.682343 175.571335 174.417465 173.248383 172.107681 171.132553 170.451630 170.156311 170.304367 170.923309 172.013947 173.553894 175.501083 177.797180 180.371277 183.143219 186.027328 188.935806 191.782318 194.485565 196.972824 199.183487 201.072647 202.614716 203.806915 204.672989 205.266586 205.675110 206.023209 206.451935 207.027740 207.780441 208.724136 209.859268 211.174469 212.648392 214.251556 215.948090 217.697342 219.455521 221.177414 222.817673 224.332535 225.681046 226.826523 227.737747 228.390442 228.768188 228.863876 228.680420 228.232208 227.545685 226.660706 225.631012 224.510330 223.307419 222.028534 220.688995 219.310089 217.916245 216.532730 215.183502 213.889481 212.667191 211.527740 210.476089 209.510712 208.623566 207.800537 207.021957 206.263779 205.498856 204.698730 203.835617 202.884857 201.827682 200.654266 199.367203 197.985260 196.524704 194.940506 193.201599 191.307648 189.281464 187.162415 185.000366 182.850433 180.768082 178.805664 177.008774 175.414047 174.047058 172.921371 172.038116 171.385956 170.942612 170.675873 170.546570 170.510910 170.525131 170.549103 170.552094 170.517883 170.452545 170.398544 170.436752 170.613968 170.936600 171.380051 171.897278 172.426437 172.897751 173.239578 173.383545 173.268875 172.845932 172.078949 170.947754 169.448837 167.595566 165.417389 162.958389 160.275101 157.433075 154.502960 151.555725 148.656906 145.860077 143.199524 140.653152 138.086426 135.397507 132.543472 129.528549 126.393227 123.204323 120.046059 117.012070 114.198479 111.697655 109.593254 107.956001 106.840561 106.283302 106.300987 106.890572 108.029732 109.678680 111.782440 114.274719 117.082176 120.130035 123.348389 126.679626 130.068588 133.414108 136.623077 139.626862 142.379166
237.157822 238.441666 239.590530 240.503693 241.113831 241.382706 241.297211 240.865356 240.112549 239.078125 237.811798 236.370590 234.815643 233.209396 231.612869 230.083099 228.670715 227.417831 226.355896 225.503845 224.866470 224.432770 224.174713 224.045898 223.980606 223.893021 223.707489 223.452026 223.166397 222.874191 222.585693 222.300751 222.011230 221.703323 221.359634 220.960999 220.488068 219.922668 219.248947 218.454300 217.529953 216.471481 215.278946 213.956909 212.514145 210.963135 209.319321 207.600266 205.824158 204.008820 202.169617 200.305405 198.368668 196.317810 194.129791 191.797836 189.329315 186.743576 184.069916 181.345474 178.613297 175.920395 173.315826 170.848877 168.567169 166.515076 164.731827 163.249954 162.093719 161.277420 160.803879 160.663162 160.830963 161.267151 161.914673 162.698181 163.557526 164.543793 165.704514 167.053864 168.579468 170.248978 172.015564 173.823135 175.611191 177.318451 178.887024 180.264526 181.406967 182.280487 182.862671 183.142776 183.122559 182.815216 182.244690 181.443680 180.452362 179.314804 178.076004 176.778152 175.456100 174.159744 173.023834 172.174942 171.705124 171.674667 172.114960 173.031433 174.406570 176.202942 178.366409 180.829376 183.514053 186.335922 189.207199 192.040298 194.751587 197.265060 199.516083 201.455276 203.052505 204.300873 205.220810 205.864212 206.318848 206.712555 207.191406 207.821823 208.631454 209.631943 210.821091 212.184982 213.700043 215.334885 217.052231 218.810684 220.566299 222.274399 223.890793 225.373459 226.683716 227.787628 228.656906 229.270386 229.614594 229.685089 229.486877 229.035446 228.357224 227.490433 226.485229 225.391647 224.221237 222.982468 221.690552 220.364944 219.027130 217.698654 216.399506 215.146744 213.953384 212.827652 211.772430 210.785019 209.857224 208.975739 208.122665 207.276489 206.413300 205.508255 204.537292 203.479279 202.318253 201.046173 199.665634 198.193298 196.642319 194.969940 193.148590 191.180771 189.091507 186.921753 184.722153 182.548004 180.454300 178.492188 176.705582 175.128830 173.784897 172.684296 171.824997 171.192322 170.760864 170.495438 170.354324 170.291855 170.263245 170.228348 170.157837 170.038452 169.881104 169.732956 169.672974 169.746918 169.962753 170.299210 170.713684 171.149261 171.541138 171.822144 171.927582 171.799347 171.389191 170.661377 169.594391 168.182083 166.433960 164.374710 162.042969 159.489655 156.774765 153.964340 151.126022 148.324203 145.614243 143.036026 140.574707 138.094391 135.489197 132.712341 129.764572 126.683449 123.533592 120.397942 117.369659 114.545319 112.018745 109.875916 108.190681 107.021538 106.409149 106.375015 106.920860 108.029022 109.663818 111.773659 114.294365 117.153099 120.273552 123.581604 127.012383 130.502350 133.949265 137.260223 140.365845 143.218582
233.577286 235.034515 236.360138 237.453995 238.247086 238.697983 238.789505 238.525360 237.926910 237.030014 235.881958 234.538483 233.060791 231.512833 229.958496 228.458939 227.070023 225.839813 224.806198 223.994446 223.415100 223.061676 222.908676 222.909485 222.994553 223.069504 223.044998 222.934830 222.768997 222.565506 222.332550 222.070694 221.774658 221.435165 221.040344 220.577286 220.033051 219.395782 218.655472 217.804688 216.838943 215.757034 214.561157 213.256805 211.852585 210.359650 208.791183 207.161682 205.485764 203.777267 202.047699 200.294724 198.477615 196.559845 194.519821 192.349442 190.052841 187.644760 185.149277 182.598083 180.029144 177.485016 175.011200 172.654648 170.461868 168.477463 166.742126 165.290985 164.151871 163.343307 162.872635 162.734283 162.907623 163.354904 164.019516 164.823746 165.704147 166.715607 167.910049 169.304443 170.887817 172.627899 174.476791 176.376465 178.263794 180.074127 181.745834 183.222565 184.456207 185.408905 186.054367 186.378372 186.379807 186.069580 185.470230 184.614059 183.541916 182.299927 180.936478 179.498779 178.028458 176.580856 175.286438 174.268097 173.617386 173.396515 173.640533 174.359604 175.541458 177.154068 179.148285 181.460907 184.017609 186.736267 189.530228 192.311874 194.996307 197.505127 199.770432 201.738907 203.376190 204.671143 205.640625 206.333939 206.838043 207.282333 207.816360 208.506882 209.380188 210.445908 211.699585 213.124863 214.695847 216.379120 218.135788 219.923279 221.697098 223.412613 225.026306 226.497421 227.789139 228.869675 229.713440 230.301956 230.624557 230.679352 230.473358 230.023422 229.356247 228.508881 227.528519 226.462524 225.326401 224.131775 222.894394 221.632233 220.363831 219.106888 217.877106 216.687134 215.545853 214.457901 213.423309 212.437469 211.491196 210.571243 209.660812 208.740402 207.788818 206.784561 205.707169 204.539108 203.267563 201.886780 200.400299 198.823730 197.168289 195.393417 193.474838 191.417740 189.249298 187.012054 184.757538 182.541382 180.418274 178.438416 176.644226 175.068100 173.730545 172.639343 171.789490 171.163254 170.732178 170.458237 170.297211 170.201630 170.125504 170.028625 169.882812 169.677399 169.427719 169.184814 169.024094 168.988861 169.087631 169.301941 169.593521 169.910568 170.193695 170.380951 170.412216 170.233047 169.797714 169.071625 168.033081 166.674347 165.002121 163.037140 160.813293 158.376236 155.780792 153.088150 150.362274 147.665573 145.053970 142.571304 140.208633 137.829758 135.326019 132.647736 129.792603 126.795502 123.718704 120.643402 117.661713 114.869919 112.362419 110.226456 108.537994 107.358322 106.731476 106.682709 107.217766 108.322952 109.966324 112.099388 114.660164 117.576706 120.771774 124.168190 127.695290 131.282684 134.827591 138.237274 141.441772 144.392242
229.786087 231.416351 232.920258 234.199722 235.185089 235.832413 236.120789 236.049591 235.635849 234.911453 233.920471 232.716461 231.359741 229.914612 228.446686 227.020126 225.694931 224.524185 223.551285 222.807281 222.307999 222.051437 222.014877 222.152161 222.391006 222.630173 222.768127 222.803711 222.756149 222.637131 222.452286 222.202591 221.885696 221.496979 221.030548 220.480179 219.839981 219.105103 218.272171 217.339676 216.308197 215.180481 213.961548 212.658417 211.279846 209.836014 208.337921 206.796768 205.223129 203.626144 202.012344 200.377213 198.687637 196.913162 195.034317 193.042145 190.937683 188.731003 186.440659 184.092529 181.718796 179.356918 177.048065 174.835922 172.765060 170.879395 169.220230 167.824677 166.723389 165.938736 165.482254 165.352707 165.533386 165.989517 166.665802 167.483521 168.377319 169.405701 170.624664 172.053818 173.683334 175.481110 177.398315 179.375214 181.346100 183.243469 185.002243 186.562424 187.872192 188.890015 189.586105 189.943161 189.957336 189.637558 189.005066 188.091766 186.939194 185.595291 184.111572 182.539825 180.927780 179.335266 177.886703 176.699753 175.864395 175.444077 175.477142 175.978500 176.941483 178.339951 180.130554 182.255402 184.644714 187.219864 189.896530 192.588211 195.209839 197.681641 199.933319 201.908249 203.568207 204.897949 205.910416 206.651672 207.206665 207.704712 208.297119 209.051392 209.993164 211.130600 212.457275 213.954605 215.594406 217.341095 219.153915 220.988846 222.800446 224.543655 226.175156 227.654968 228.947540 230.022919 230.857620 231.435608 231.748688 231.797287 231.590530 231.146683 230.492950 229.665756 228.710114 227.671585 226.570877 225.423691 224.246918 223.057449 221.871033 220.701462 219.559875 218.454102 217.388367 216.363037 215.374557 214.415588 213.475204 212.539474 211.591873 210.614258 209.587646 208.493423 207.314560 206.037018 204.651459 203.154892 201.552658 199.860580 198.089111 196.200012 194.171890 192.012512 189.751144 187.431839 185.107178 182.833206 180.664444 178.650421 176.832275 175.240677 173.894028 172.797623 171.943741 171.311829 170.870560 170.579269 170.391403 170.257568 170.130676 169.970245 169.748962 169.458496 169.118073 168.781815 168.519836 168.371521 168.344986 168.423935 168.574127 168.748993 168.894913 168.955719 168.876724 168.608093 168.107697 167.343307 166.294189 164.952240 163.322403 161.422531 159.282593 156.943665 154.455612 151.874908 149.261459 146.674927 144.170563 141.794312 139.541550 137.276794 134.890121 132.329758 129.591080 126.706406 123.735603 120.757759 117.863388 115.147713 112.704712 110.621971 108.976456 107.831116 107.232300 107.207970 107.767036 108.898964 110.575020 112.749550 115.362709 118.343781 121.615311 125.098206 128.717590 132.398087 136.036743 139.541290 142.841141 145.886292
225.853439 227.651505 229.330139 230.794754 231.976044 232.828308 233.327301 233.468231 233.263611 232.740982 231.940643 230.913177 229.717010 228.415771 227.075668 225.762726 224.539917 223.464249 222.583740 221.934387 221.536850 221.393295 221.484009 221.763840 222.158920 222.562790 222.863556 223.044861 223.114441 223.077148 222.935638 222.691177 222.344177 221.894714 221.342987 220.689789 219.936600 219.086014 218.141769 217.108841 215.993408 214.802795 213.545288 212.229889 210.866028 209.463074 208.029968 206.574615 205.103226 203.619705 202.124725 200.610901 199.053207 197.427994 195.718597 193.915558 192.017014 190.028519 187.962967 185.840118 183.686157 181.532745 179.416183 177.376236 175.454727 173.694168 172.135712 170.817627 169.772903 169.027054 168.595581 168.481369 168.671753 169.135361 169.818970 170.644165 171.544769 172.582764 173.817703 175.271423 176.935242 178.777100 180.747391 182.784836 184.821609 186.787582 188.614700 190.239838 191.607910 192.674164 193.405869 193.782913 193.799179 193.461838 192.791061 191.818451 190.586121 189.143600 187.545242 185.846756 184.101288 182.372025 180.775772 179.423615 178.402908 177.777634 177.589035 177.856674 178.579620 179.738037 181.294983 183.198654 185.384720 187.779083 190.300888 192.865845 195.389816 197.792694 200.002640 201.960495 203.624634 204.975891 206.023102 206.808533 207.414032 207.967163 208.619308 209.439041 210.451965 211.665314 213.071060 214.648605 216.367523 218.190063 220.073410 221.971832 223.838577 225.627777 227.295853 228.803070 230.114700 231.202057 232.043381 232.624603 232.939713 232.991302 232.790405 232.356812 231.718521 230.911819 229.980194 228.968491 227.903595 226.806152 225.694870 224.585922 223.492523 222.424576 221.388474 220.386963 219.419128 218.480515 217.563324 216.656754 215.747345 214.819641 213.856735 212.841019 211.755142 210.582886 209.310272 207.926773 206.426544 204.809937 203.084885 201.268692 199.372299 197.359802 195.212494 192.940491 190.575058 188.161743 185.754227 183.409012 181.180664 179.118164 177.261703 175.640457 174.270966 173.156357 172.286484 171.638184 171.177551 170.861496 170.641159 170.465439 170.286011 170.062088 169.766953 169.394226 168.966537 168.540176 168.178497 167.915558 167.758011 167.691071 167.684158 167.695877 167.678574 167.582367 167.358658 166.963135 166.358246 165.515259 164.415665 163.052155 161.429153 159.562668 157.479721 155.217575 152.821625 150.343811 147.839691 145.365570 142.974701 140.713272 138.579239 136.438828 134.182220 131.756592 129.155533 126.409134 123.574852 120.729370 117.961021 115.363274 113.028786 111.044479 109.487244 108.420563 107.891945 107.931091 108.548958 109.737518 111.470535 113.704811 116.382614 119.434662 122.784081 126.350952 130.057922 133.826385 137.553879 141.148697 144.539902 147.676285
221.853073 223.809067 225.653976 227.297852 228.672836 229.732147 230.448730 230.813858 230.835587 230.536880 229.953766 229.133255 228.131088 227.009247 225.833481 224.670517 223.585205 222.637360 221.878632 221.349014 221.073425 221.057846 221.285583 221.713043 222.265747 222.833786 223.296692 223.623230 223.809387 223.852875 223.753189 223.511566 223.131027 222.616226 221.973419 221.210327 220.335968 219.360474 218.294907 217.151001 215.940857 214.676651 213.370392 212.033386 210.676010 209.307159 207.933853 206.560776 205.189697 203.819000 202.442993 201.050812 199.625778 198.151581 196.614685 195.005554 193.319763 191.558487 189.729080 187.845184 185.926697 183.999374 182.094177 180.246460 178.494751 176.879471 175.441040 174.218170 173.245483 172.551224 172.154297 172.061478 172.264130 172.734512 173.422180 174.249924 175.151947 176.193298 177.436447 178.905045 180.591324 182.463303 184.470718 186.550964 188.634491 190.648911 192.523819 194.193436 195.599991 196.696121 197.446594 197.829086 197.835587 197.471878 196.757217 195.723038 194.411987 192.875000 191.168716 189.352234 187.483185 185.626999 183.891525 182.380203 181.176804 180.345169 179.929031 179.952332 180.419891 181.318420 182.617783 184.272842 186.225479 188.407013 190.740997 193.146362 195.540939 197.845261 199.986893 201.904846 203.554642 204.913528 205.986191 206.810577 207.464508 208.072250 208.783707 209.668610 210.753204 212.044281 213.532516 215.195541 217.000854 218.908447 220.873444 222.848206 224.784348 226.634903 228.355545 229.906403 231.253052 232.367661 233.229660 233.826584 234.154205 234.217026 234.027908 233.608139 232.986786 232.200348 231.291595 230.305527 229.276093 228.229630 227.187210 226.164764 225.173218 224.218689 223.302841 222.423126 221.573151 220.743210 219.920700 219.090683 218.236465 217.340317 216.384140 215.350220 214.222092 212.985428 211.628906 210.145264 208.532288 206.794006 204.941742 202.995407 200.967880 198.825546 196.552139 194.159973 191.682144 189.165695 186.665359 184.238251 181.939041 179.816422 177.909744 176.247025 174.843185 173.699478 172.803574 172.130051 171.642685 171.296051 171.039337 170.819656 170.587601 170.301819 169.936142 169.485657 168.975922 168.464569 168.006790 167.630173 167.338837 167.118851 166.942810 166.774307 166.571732 166.291809 165.892563 165.335907 164.589828 163.630096 162.441544 161.018860 159.367126 157.501678 155.447617 153.239182 150.917999 148.531662 146.131363 143.769302 141.495667 139.354980 137.345978 135.337509 133.221115 130.943924 128.498352 125.912544 123.241615 120.559624 117.952286 115.510612 113.325211 111.481293 110.054672 109.108315 108.689766 108.829353 109.539200 110.812851 112.625954 114.937309 117.691200 120.820038 124.248100 127.895828 131.684982 135.535660 139.346436 143.026413 146.504318 149.728043
217.860306 219.960114 221.958252 223.770386 225.330978 226.592865 227.526794 228.120468 228.377609 228.316589 227.968948 227.377640 226.595047 225.680771 224.699127 223.716522 222.798569 222.006805 221.395432 221.007645 220.871796 220.997284 221.370346 221.949280 222.659943 223.390564 224.014069 224.485046 224.787933 224.913300 224.857330 224.621078 224.209854 223.632614 222.901382 222.030563 221.036438 219.936584 218.749237 217.492859 216.185532 214.844437 213.485397 212.122269 210.766632 209.427139 208.109161 206.814346 205.540070 204.279236 203.019577 201.746460 200.451508 199.125809 197.759277 196.342636 194.869141 193.335983 191.745239 190.104568 188.427750 186.734528 185.050415 183.406113 181.836487 180.379379 179.073959 177.958771 177.069550 176.436615 176.081787 176.015442 176.232773 176.709732 177.399063 178.225662 179.124954 180.164444 181.408890 182.883301 184.580643 186.468857 188.497177 190.601990 192.712357 194.754242 196.655289 198.347778 199.771866 200.878159 201.629547 202.002075 201.986313 201.586975 200.822739 199.724945 198.336731 196.710129 194.903687 192.979141 190.997665 189.025772 187.161453 185.499573 184.119644 183.084732 182.440521 182.215088 182.418823 183.044983 184.070450 185.457153 187.153671 189.097397 191.217102 193.435760 195.674118 197.854248 199.903931 201.761154 203.379211 204.732086 205.820404 206.677490 207.376343 208.036621 208.805222 209.753189 210.907852 212.275970 213.847290 215.597931 217.493408 219.491684 221.545654 223.605713 225.621689 227.545181 229.330872 230.938293 232.332947 233.487350 234.381744 235.004837 235.353851 235.434875 235.262405 234.859268 234.255707 233.488876 232.601349 231.639252 230.644211 229.648788 228.676926 227.744736 226.861145 226.028763 225.244553 224.500595 223.784897 223.082169 222.374557 221.642487 220.865387 220.022614 219.094116 218.061371 216.908173 215.621445 214.192062 212.615799 210.894043 209.034790 207.053391 204.973541 202.811234 200.535278 198.131592 195.614502 193.018829 190.393082 187.792969 185.276291 182.897964 180.706451 178.740524 177.027206 175.580124 174.398865 173.469238 172.763840 172.244339 171.863312 171.568039 171.304077 171.020859 170.676559 170.245178 169.723022 169.138046 168.548401 168.000153 167.513260 167.088577 166.712189 166.359421 165.998550 165.593948 165.109009 164.508759 163.761917 162.842712 161.732315 160.419891 158.903305 157.189377 155.293884 153.241074 151.063065 148.798386 146.490723 144.186813 141.934357 139.779343 137.762924 135.882843 134.011215 132.042175 129.923630 127.647469 125.240250 122.754784 120.262367 117.845757 115.592995 113.591881 111.925163 110.666580 109.877571 109.604713 109.877937 110.709625 112.094040 114.008041 116.412010 119.252007 122.462326 125.968971 129.693756 133.559174 137.485779 141.373734 145.133118 148.692642 151.999359
213.948425 216.174393 218.308716 220.273453 222.005997 223.459625 224.603378 225.421921 225.914963 226.096390 225.993210 225.644089 225.097641 224.410400 223.644516 222.865204 222.137787 221.524551 221.081284 220.853333 220.871826 221.149002 221.673798 222.406677 223.274612 224.165344 224.947128 225.561584 225.982147 226.192596 226.185791 225.962387 225.529678 224.900497 224.092072 223.125046 222.022430 220.808701 219.508972 218.148102 216.749863 215.336319 213.927094 212.538696 211.183990 209.871658 208.605652 207.384903 206.202744 205.046783 203.898438 202.739212 201.568634 200.385025 199.181763 197.950058 196.681320 195.369049 194.010513 192.607864 191.168976 189.707870 188.244720 186.805557 185.421417 184.127365 182.960861 181.959869 181.160675 180.595139 180.287537 180.251328 180.485229 180.968857 181.658279 182.481155 183.374680 184.408234 185.648056 187.120102 188.817657 190.708710 192.742050 194.853333 196.970657 199.018845 200.924179 202.617630 204.037964 205.134430 205.868668 206.215652 206.165039 205.720901 204.901611 203.738541 202.275208 200.564575 198.666565 196.644821 194.563065 192.487778 190.506516 188.705093 187.158249 185.927658 185.060562 184.588684 184.527679 184.877182 185.621094 186.728485 188.154968 189.844421 191.731339 193.743469 195.805145 197.840805 199.779221 201.558075 203.129059 204.463333 205.557617 206.440506 207.179611 207.888885 208.711014 209.718262 210.939423 212.381516 214.033722 215.870834 217.856735 219.947342 222.093491 224.243515 226.345413 228.349182 230.208206 231.881180 233.333176 234.536667 235.472305 236.129578 236.506760 236.611328 236.459167 236.074554 235.489014 234.740646 233.872437 232.932236 231.969818 231.024292 230.122894 229.282242 228.509689 227.804550 227.159302 226.560791 225.991333 225.429916 224.853180 224.236481 223.554932 222.784332 221.902130 220.888306 219.726242 218.403549 216.912827 215.252518 213.427536 211.449982 209.339798 207.125443 204.827148 202.416245 199.880692 197.236618 194.520523 191.782211 189.078400 186.467606 184.004959 181.738892 179.707748 177.937714 176.441315 175.216766 174.248306 173.506760 172.951950 172.534683 172.200562 171.893677 171.562393 171.164276 170.673431 170.087051 169.434906 168.775070 168.143707 167.552444 166.998062 166.466034 165.933899 165.374146 164.756882 164.052216 163.232254 162.272873 161.155060 159.866150 158.400467 156.759949 154.954269 153.000671 150.923538 148.753815 146.527679 144.285339 142.069229 139.922226 137.885162 135.994308 134.244675 132.512268 130.694641 128.741333 126.644173 124.428558 122.145111 119.862305 117.659744 115.622040 113.833641 112.374138 111.314430 110.713516 110.616150 111.050972 112.029663 113.546494 115.578873 118.088303 121.022430 124.317520 127.901756 131.699203 135.634552 139.630402 143.589020 147.421692 151.057251 154.442123
210.184845 212.516556 214.766876 216.864563 218.750641 220.379257 221.718506 222.750473 223.471329 223.890823 224.031586 223.927917 223.624451 223.174286 222.636841 222.075363 221.554138 221.135208 220.874954 220.820145 221.003754 221.440323 222.121216 223.009094 224.032608 225.080246 226.017395 226.774231 227.314270 227.615005 227.666138 227.467773 227.028824 226.365356 225.499176 224.456329 223.265854 221.958420 220.565247 219.116974 217.642654 216.168808 214.718643 213.311203 211.960739 210.676102 209.460205 208.309570 207.214005 206.156372 205.112274 204.059586 203.005051 201.953629 200.902100 199.842270 198.764038 197.657806 196.516586 195.337524 194.123230 192.882477 191.630402 190.388626 189.184433 188.050079 187.021057 186.134476 185.426697 184.930664 184.672516 184.668365 184.920029 185.410461 186.099167 186.916702 187.802475 188.827087 190.057419 191.519821 193.207794 195.089127 197.112396 199.212814 201.317902 203.351837 205.240265 206.913315 208.309128 209.376297 210.075806 210.382156 210.284592 209.787018 208.907700 207.678177 206.142349 204.353821 202.373398 200.265945 198.096649 195.930969 193.845901 191.918030 190.216980 188.802719 187.723434 187.014038 186.695068 186.772141 187.235901 188.062469 189.214462 190.642456 192.286957 194.080948 195.952850 197.830124 199.643204 201.330124 202.841568 204.146347 205.237610 206.139236 206.913132 207.666748 208.537521 209.598846 210.881165 212.392029 214.120285 216.039734 218.112732 220.293427 222.530731 224.770996 226.960358 229.047119 230.983337 232.726593 234.241241 235.499451 236.481934 237.178589 237.588486 237.720093 237.590500 237.225357 236.657425 235.926010 235.074921 234.154297 233.222137 232.324265 231.491409 230.741119 230.079483 229.502869 228.999557 228.551392 228.135101 227.723984 227.289001 226.800308 226.228256 225.544739 224.724121 223.744324 222.587723 221.242065 219.701187 217.965805 216.044128 213.952499 211.715805 209.368073 206.934769 204.389832 201.723145 198.952576 196.116089 193.264740 190.456284 187.749786 185.200760 182.857605 180.758316 178.928482 177.379654 176.108932 175.099121 174.319595 173.728561 173.275253 172.903809 172.556976 172.182129 171.736206 171.193253 170.551025 169.840744 169.119858 168.414200 167.726639 167.049301 166.366531 165.657410 164.898209 164.064392 163.132538 162.081787 160.895294 159.561157 158.073242 156.431793 154.643570 152.721954 150.686630 148.563034 146.381882 144.177643 141.987625 139.850250 137.803314 135.881851 134.115845 132.496155 130.902893 129.237808 127.452614 125.539665 123.523415 121.452530 119.392731 117.420265 115.616165 114.061089 112.830948 111.993141 111.603638 111.704536 112.322441 113.467613 115.133575 117.297737 119.922241 122.956131 126.337624 129.997437 133.862656 137.861359 141.919510 145.942047 149.841522 153.547226 157.005066
206.626358 209.041702 211.385651 213.593811 215.611084 217.393158 218.907593 220.134628 221.067429 221.712067 222.087097 222.222717 222.159561 221.947067 221.641571 221.303864 220.996490 220.780518 220.712128 220.838593 221.194000 221.794617 222.633743 223.676254 224.852844 226.053650 227.142776 228.040924 228.703003 229.101013 229.221771 229.064697 228.639877 227.965988 227.068512 225.978058 224.728577 223.355988 221.896698 220.386307 218.858353 217.343307 215.867538 214.452362 213.113388 211.859756 210.693634 209.609711 208.594849 207.627884 206.679474 205.724365 204.775467 203.843613 202.928604 202.022919 201.115341 200.193680 199.247421 198.269440 197.257843 196.216766 195.156982 194.096069 193.057953 192.072113 191.172119 190.394012 189.773956 189.345444 189.136093 189.164047 189.433716 189.931061 190.618713 191.430222 192.307281 193.320892 194.537872 195.984543 197.654175 199.514542 201.513947 203.587524 205.662567 207.663147 209.514786 211.147522 212.499451 213.519089 214.167526 214.419281 214.263702 213.704895 212.761322 211.464828 209.859619 207.999680 205.946259 203.764709 201.520737 199.277908 197.102798 195.063095 193.223190 191.640961 190.365173 189.433380 188.870392 188.687317 188.881058 189.434494 190.316971 191.485672 192.887192 194.459915 196.136749 197.848541 199.527985 201.114014 202.556839 203.823486 204.903915 205.817444 206.620209 207.412674 208.326370 209.435547 210.772339 212.345016 214.142242 216.137100 218.290695 220.555618 222.879074 225.205597 227.479584 229.647675 231.660507 233.474472 235.053055 236.367889 237.399490 238.137894 238.582611 238.742859 238.636734 238.291016 237.739777 237.023514 236.187225 235.283722 234.379013 233.525558 232.757782 232.094330 231.540405 231.089844 230.727127 230.429337 230.167984 229.910736 229.623032 229.269653 228.816101 228.229980 227.482239 226.548233 225.408844 224.051437 222.470551 220.668839 218.657547 216.457153 214.097763 211.619537 209.053970 206.377838 203.582779 200.688293 197.733795 194.771500 191.860016 189.059067 186.424469 184.004623 181.837265 179.947433 178.345932 177.028793 175.977737 175.160736 174.534714 174.047470 173.641830 173.259430 172.846649 172.359833 171.772858 171.083847 170.325027 169.552826 168.782745 168.008728 167.217941 166.393005 165.514099 164.560669 163.513092 162.353958 161.069275 159.649292 158.089325 156.390121 154.558121 152.605591 150.550247 148.415039 146.227310 144.018280 141.821533 139.671997 137.604385 135.651428 133.841888 132.198395 130.706406 129.250122 127.736023 126.118423 124.390480 122.576157 120.722328 118.892067 117.158310 115.598366 114.288879 113.301788 112.700607 112.537651 112.851891 113.667297 114.992050 116.818390 119.123199 121.868858 125.005508 128.473282 132.205734 136.133438 140.188812 144.302383 148.382019 152.341766 156.111450 159.636780
203.314240 205.790588 208.204941 210.499527 212.623306 214.533829 216.198792 217.597107 218.719620 219.569321 220.161163 220.521591 220.687439 220.704575 220.626068 220.509933 220.416504 220.405289 220.531555 220.842346 221.372223 222.138458 223.135941 224.331467 225.657959 227.007874 228.245407 229.283859 230.071182 230.574738 230.778900 230.682327 230.295822 229.639938 228.742920 227.638779 226.365341 224.962585 223.470978 221.930038 220.376953 218.845322 217.364136 215.956696 214.639755 213.422913 212.307861 211.287933 210.347855 209.463394 208.601242 207.733749 206.878815 206.052094 205.255844 204.483292 203.722351 202.958878 202.179535 201.373871 200.536285 199.667160 198.773605 197.869873 196.976913 196.121796 195.336304 194.655396 194.114761 193.748169 193.584167 193.642441 193.929443 194.433609 195.120255 195.925735 196.793869 197.795303 198.996109 200.422043 202.066055 203.895660 205.859177 207.891769 209.920990 211.871201 213.668365 215.243027 216.533737 217.489716 218.072556 218.257401 218.034195 217.407562 216.396439 215.033051 213.361938 211.437164 209.320038 207.075729 204.769562 202.462433 200.211151 198.074997 196.113266 194.381592 192.928848 191.794724 191.007660 190.583603 190.525116 190.821198 191.447571 192.367661 193.534012 194.890350 196.374237 197.920135 199.463394 200.944260 202.313080 203.535522 204.598785 205.518021 206.343689 207.169189 208.119629 209.269867 210.653610 212.279861 214.137360 216.198593 218.423721 220.764084 223.165359 225.570557 227.922455 230.166245 232.251114 234.132339 235.772430 237.142365 238.222260 239.002060 239.481476 239.670212 239.587158 239.260040 238.724060 238.021057 237.197327 236.308456 235.428177 234.615265 233.907761 233.325684 232.873657 232.543381 232.315964 232.164200 232.054688 231.949814 231.809647 231.593704 231.262558 230.779434 230.111557 229.231415 228.117981 226.757706 225.145477 223.285416 221.191498 218.888229 216.410980 213.806458 211.112762 208.309616 205.390472 202.376404 199.308136 196.238953 193.228348 190.336533 187.619614 185.126007 182.893204 180.945755 179.293808 177.932480 176.842453 175.990601 175.332657 174.815186 174.379883 173.967300 173.522995 173.002731 172.380142 171.653503 170.855804 170.042099 169.217972 168.368546 167.475815 166.520386 165.482956 164.345612 163.093018 161.713348 160.198944 158.547012 156.759842 154.845093 152.815689 150.689621 148.489594 146.242355 143.977814 141.728485 139.527649 137.408539 135.402466 133.537231 131.835037 130.310516 128.942596 127.619537 126.252632 124.799065 123.253197 121.638596 120.000671 118.400070 116.906487 115.593513 114.533821 113.795181 113.436974 113.507690 114.042641 115.062775 116.573837 118.566254 121.015961 123.885216 127.125023 130.677383 134.478668 138.463409 142.568954 146.731262 150.861328 154.874878 158.702423 162.289627
200.268860 202.784485 205.246628 207.603729 209.808746 211.821365 213.609879 215.152542 216.438477 217.468231 218.253860 218.818451 219.195450 219.427338 219.563980 219.660461 219.774643 219.964066 220.282516 220.776260 221.479660 222.410446 223.564560 224.910522 226.383392 227.878326 229.260696 230.438583 231.354614 231.972672 232.275009 232.259552 231.937347 231.330093 230.467850 229.386917 228.127762 226.733200 225.246552 223.710175 222.163849 220.643539 219.180161 217.798553 216.516464 215.343948 214.282516 213.324768 212.453979 211.643875 210.858490 210.068481 209.295532 208.558807 207.862564 207.200546 206.560196 205.925934 205.282379 204.616638 203.920334 203.191040 202.433075 201.658051 200.884613 200.137863 199.448059 198.849091 198.376129 198.062973 197.938675 198.023956 198.326752 198.837357 199.523254 200.323212 201.182739 202.171509 203.354202 204.755600 206.368118 208.158981 210.076584 212.056412 214.026550 215.912109 217.639893 219.141479 220.356476 221.235199 221.740341 221.848129 221.549484 220.849838 219.768860 218.339249 216.605820 214.622559 212.450409 210.153793 207.796906 205.437378 203.123123 200.905731 198.839737 196.978439 195.370544 194.057251 193.070038 192.428925 192.141418 192.201981 192.592087 193.280930 194.226608 195.378036 196.677307 198.062714 199.472290 200.848129 202.140991 203.315750 204.357315 205.277069 206.120102 206.972900 207.953995 209.138443 210.561417 212.232590 214.140793 216.258224 218.544281 220.949326 223.417847 225.891541 228.311905 230.622757 232.772110 234.714127 236.410339 237.831070 238.955887 239.774506 240.286667 240.502335 240.440918 240.130951 239.608658 238.917068 238.103836 237.227402 236.368546 235.591949 234.939178 234.431732 234.073944 233.855789 233.755417 233.741852 233.777176 233.818924 233.822067 233.741089 233.531754 233.152847 232.567764 231.745865 230.663910 229.307129 227.670303 225.758652 223.588547 221.188309 218.598557 215.872635 213.055710 210.130630 207.092606 203.964294 200.787689 197.617111 194.512756 191.535309 188.741135 186.178604 183.884933 181.884247 180.185974 178.784500 177.659561 176.777054 176.091537 175.548645 175.088974 174.652191 174.183044 173.636810 172.986771 172.231293 171.403824 170.557999 169.690002 168.776520 167.794479 166.722122 165.540237 164.233002 162.788788 161.200684 159.466934 157.591156 155.582397 153.455048 151.228470 148.926651 146.577438 144.211884 141.863022 139.565125 137.351929 135.255325 133.303772 131.520325 129.920624 128.510788 127.262573 126.067879 124.842819 123.547569 122.177780 120.756920 119.329193 117.952904 116.694893 115.625145 114.812386 114.320282 114.204102 114.508240 115.264343 116.490005 118.188194 120.347313 122.941948 125.934013 129.275116 132.908951 136.774719 140.811066 144.960709 149.165543 153.339874 157.401093 161.280594 164.924194
197.482910 200.018661 202.508423 204.906235 207.168915 209.258484 211.144165 212.804092 214.226364 215.409698 216.363800 217.109055 217.675903 218.103790 218.439545 218.735397 219.046570 219.428375 219.932831 220.604904 221.478256 222.570602 223.878479 225.371719 226.987488 228.623672 230.147644 231.464218 232.512421 233.253571 233.668365 233.753937 233.521194 232.992264 232.198151 231.176376 229.968903 228.620178 227.175278 225.678223 224.170471 222.689438 221.267380 219.930145 218.696335 217.576385 216.571915 215.675262 214.869049 214.125916 213.408493 212.686554 211.984314 211.323303 210.709061 210.135788 209.590591 209.057053 208.518433 207.960220 207.372208 206.750015 206.096085 205.420166 204.739197 204.076828 203.462143 202.928131 202.509476 202.239761 202.148270 202.256332 202.572754 203.089188 203.774673 204.569839 205.421448 206.397522 207.560928 208.935165 210.511856 212.257965 214.122025 216.039993 217.940811 219.750610 221.397430 222.814316 223.942337 224.733337 225.151520 225.174530 224.794617 224.018280 222.866119 221.371353 219.578995 217.542892 215.323227 212.983292 210.585434 208.183716 205.818008 203.533218 201.379456 199.407745 197.666306 196.197449 195.035004 194.202347 193.711243 193.560837 193.737701 194.216232 194.959641 195.921661 197.048721 198.282852 199.565018 200.839218 202.057068 203.182983 204.200058 205.116379 205.972122 206.847107 207.853378 209.065903 210.520935 212.228775 214.178452 216.341904 218.678085 221.136581 223.661041 226.192108 228.670227 231.038147 233.242844 235.237473 236.982803 238.448364 239.613220 240.466751 241.008545 241.248734 241.207016 240.912521 240.402344 239.720596 238.916306 238.050507 237.210434 236.466156 235.862595 235.422729 235.150879 235.035583 235.052567 235.167465 235.338364 235.518326 235.657639 235.705994 235.614517 235.337692 234.834991 234.072647 233.024902 231.675537 230.018845 228.060852 225.820084 223.328308 220.631256 217.789017 214.853928 211.812119 208.660690 205.423813 202.144760 198.878769 195.686722 192.629730 189.764252 187.138580 184.789688 182.741150 181.001816 179.565292 178.410416 177.502151 176.794174 176.231049 175.752518 175.297379 174.809769 174.244370 173.574173 172.797592 171.948334 171.078613 170.175919 169.209122 168.150101 166.974686 165.663345 164.201874 162.581741 160.800369 158.861328 156.774139 154.554230 152.222382 149.804276 147.329849 144.832275 142.347122 139.910873 137.560104 135.329315 133.249695 131.347183 129.640381 128.138489 126.838921 125.705765 124.634201 123.544968 122.401085 121.199631 119.964180 118.737839 117.577019 116.545761 115.710739 115.136986 114.884163 115.003464 115.535362 116.507675 117.934624 119.816246 122.138718 124.875092 127.986717 131.425537 135.136871 139.062607 143.145554 147.333954 151.575882 155.788971 159.892426 163.818573 167.513535
194.915848 197.456940 199.958527 202.379761 204.681046 206.826782 208.787476 210.541504 212.076416 213.389725 214.489304 215.393326 216.129715 216.735168 217.253723 217.734924 218.231339 218.795929 219.478729 220.323120 221.361725 222.611801 224.070175 225.707672 227.463287 229.237640 230.900574 232.355240 233.538452 234.409866 234.948929 235.152008 235.029602 234.603760 233.905640 232.973114 231.848709 230.577530 229.205383 227.777115 226.334930 224.917099 223.556549 222.279846 221.106049 220.046082 219.101868 218.265839 217.520584 216.838547 216.181915 215.520432 214.879700 214.282623 213.735458 213.232697 212.761292 212.304337 211.844391 211.365967 210.857788 210.314346 209.736816 209.133850 208.521255 207.921722 207.363434 206.878723 206.501785 206.265961 206.200516 206.326996 206.654785 207.176239 207.861526 208.652573 209.496933 210.460526 211.604019 212.949371 214.487396 216.184708 217.990067 219.840027 221.664505 223.390961 224.948975 226.273224 227.306610 228.002823 228.327835 228.260986 227.796051 226.940857 225.716949 224.158173 222.309738 220.225174 217.963791 215.587280 213.155807 210.719559 208.311386 205.970184 203.742142 201.676071 199.819534 198.215576 196.899826 195.898514 195.226913 194.888275 194.873657 195.162064 195.721375 196.509766 197.477829 198.571136 199.733582 200.911224 202.056702 203.134323 204.125778 205.036194 205.901291 206.794617 207.821945 209.057785 210.539276 212.277176 214.260681 216.461670 218.838730 221.340988 223.911392 226.489868 229.016006 231.431702 233.683105 235.722580 237.510086 239.014542 240.214478 241.098907 241.667175 241.929413 241.905563 241.625153 241.125961 240.453079 239.656769 238.800552 237.977402 237.262344 236.703400 236.325073 236.131775 236.110947 236.236221 236.470245 236.767532 237.077042 237.344681 237.515701 237.536774 237.358185 236.935638 236.232056 235.219177 233.879089 232.205444 230.204758 227.897400 225.318466 222.518524 219.564377 216.515564 213.361603 210.101562 206.761154 203.384933 200.029022 196.754868 193.623962 190.692795 188.009583 185.610886 183.519821 181.744553 180.277939 179.097946 178.168701 177.442886 176.864258 176.371643 175.903168 175.402237 174.823120 174.138519 173.346771 172.481857 171.594559 170.664413 169.653000 168.527420 167.260971 165.833603 164.232285 162.451111 160.491364 158.361328 156.076065 153.656876 151.130630 148.529160 145.888184 143.246246 140.643463 138.120071 135.715103 133.464294 131.398422 129.541199 127.907150 126.499153 125.305984 124.283821 123.330658 122.371597 121.372414 120.331604 119.272926 118.238602 117.283340 116.468620 115.858116 115.513321 115.490135 115.835907 116.587158 117.768074 119.389427 121.448425 123.928764 126.802017 130.028671 133.561050 137.345718 141.327332 145.452652 149.675491 153.950165 158.197647 162.338898 166.307327 170.049347
192.485687 195.023712 197.528091 199.962631 202.291245 204.480698 206.502869 208.336685 209.969421 211.397690 212.627914 213.676392 214.568771 215.339310 216.029449 216.686050 217.359207 218.099472 218.954773 219.966782 221.166931 222.571777 224.178192 225.957794 227.851242 229.761841 231.562042 233.154358 234.474197 235.480011 236.150345 236.480743 236.481171 236.173248 235.587845 234.762680 233.740265 232.565781 231.285187 229.943558 228.583405 227.243332 225.956635 224.750244 223.643707 222.648270 221.766312 220.990585 220.304077 219.679474 219.079269 218.473495 217.888596 217.348160 216.858887 216.415375 216.004532 215.609253 215.211624 214.795670 214.349487 213.866852 213.348267 212.801605 212.241928 211.691254 211.177139 210.731400 210.387756 210.179321 210.135208 210.276993 210.614349 211.140121 211.825180 212.612427 213.449860 214.401062 215.524323 216.839966 218.337875 219.984344 221.728317 223.507111 225.251694 226.890930 228.356110 229.583710 230.518646 231.116501 231.345230 231.186066 230.634354 229.699326 228.403564 226.781647 224.878830 222.748337 220.448441 218.039154 215.578156 213.111649 210.666061 208.274902 205.980621 203.829926 201.869675 200.143372 198.688217 197.532852 196.695694 196.183685 195.991959 196.103790 196.491394 197.117172 197.935623 198.895798 199.944489 201.029785 202.105515 203.136063 204.101868 205.005463 205.878326 206.788086 207.834366 209.091080 210.595978 212.360306 214.373352 216.606964 219.019531 221.559753 224.170105 226.789917 229.358124 231.815903 234.108673 236.188095 238.013489 239.553146 240.785110 241.697983 242.290909 242.573914 242.567062 242.300262 241.811859 241.147766 240.359436 239.512695 238.705902 238.018646 237.501938 237.181763 237.062729 237.131378 237.359360 237.706665 238.124405 238.557770 238.948502 239.237549 239.367355 239.284088 238.939713 238.293900 237.315811 235.985764 234.296661 232.255402 229.884003 227.220673 224.320831 221.257706 218.098160 214.835129 211.469666 208.029144 204.559250 201.117065 197.764587 194.563568 191.570587 188.833603 186.388855 184.258896 182.451233 180.957901 179.756119 178.809036 178.068527 177.477402 176.973755 176.494980 175.983871 175.394196 174.698471 173.894989 173.017838 172.116547 171.163147 170.112305 168.926514 167.576538 166.041672 164.309799 162.377380 160.249222 157.938065 155.464081 152.854187 150.141220 147.362839 144.560501 141.778000 139.060120 136.450851 133.991867 131.720261 129.666595 127.852669 126.289017 124.972382 123.882988 122.969032 122.131065 121.298248 120.439072 119.553398 118.665222 117.816055 117.058907 116.452988 116.059052 115.935287 116.133972 116.698708 117.662270 119.045219 120.855026 123.085892 125.719284 128.725037 132.062881 135.685287 139.540115 143.574554 147.739334 151.993729 156.298218 160.577148 164.753235 168.760925 172.547119
190.116028 192.649078 195.154236 197.599945 199.953537 202.184158 204.265137 206.175919 207.903610 209.443985 210.802048 211.992249 213.038040 213.971252 214.830734 215.660721 216.508743 217.423004 218.449280 219.627518 220.987839 222.546158 224.299286 226.219666 228.249588 230.294983 232.231079 233.959793 235.415207 236.554718 237.355927 237.813629 237.937195 237.747787 237.275970 236.559296 235.640137 234.563721 233.376083 232.122482 230.845657 229.584457 228.372559 227.237244 226.198395 225.267685 224.447891 223.732132 223.103775 222.535889 221.991272 221.440323 220.910294 220.425354 219.992554 219.606659 219.254562 218.918854 218.581375 218.225601 217.839111 217.414993 216.953140 216.460648 215.951981 215.448425 214.977020 214.568970 214.257629 214.075806 214.052460 214.209198 214.555939 215.085953 215.770737 216.554260 217.384781 218.323349 219.425613 220.710220 222.165985 223.758972 225.438354 227.142258 228.802872 230.350616 231.718567 232.845215 233.677582 234.173401 234.302673 234.048523 233.408051 232.391922 231.023834 229.338913 227.382614 225.207642 222.871216 220.431458 217.943420 215.449234 212.968979 210.530853 208.173706 205.942078 203.882095 202.037674 200.447495 199.142517 198.144226 197.463165 197.098434 197.037537 197.256958 197.723236 198.394806 199.224197 200.161041 201.155609 202.162888 203.147369 204.088379 204.985855 205.867142 206.793930 207.859772 209.137711 210.666077 212.456375 214.498047 216.762909 219.209137 221.785141 224.432999 227.091522 229.699112 232.196350 234.528046 236.645264 238.506729 240.080231 241.343369 242.284378 242.902206 243.206772 243.218246 242.966812 242.491302 241.838440 241.060623 240.225922 239.437729 238.780045 238.306732 238.045212 238.000290 238.157562 238.486908 238.945648 239.481705 240.036530 240.547928 240.952652 241.189041 241.199295 240.931702 240.342804 239.399261 238.079620 236.376053 234.295792 231.862473 229.117340 226.120453 222.951416 219.684158 216.315033 212.847061 209.309158 205.748184 202.222000 198.793152 195.523590 192.469894 189.679825 187.189209 185.020081 183.179337 181.658279 180.433319 179.466888 178.709991 178.104752 177.588531 177.098053 176.575653 175.974686 175.267349 174.451904 173.562515 172.647308 171.671066 170.581757 169.337418 167.906311 166.267090 164.408508 162.329285 160.037598 157.550476 154.893082 152.097839 149.203217 146.252716 143.293304 140.373993 137.544083 134.851288 132.339905 130.048340 128.007065 126.235924 124.741669 123.515007 122.527763 121.720306 120.995750 120.287338 119.566246 118.833740 118.114067 117.448013 116.887024 116.488014 116.308853 116.404411 116.823387 117.605598 118.780098 120.363792 122.360786 124.762367 127.547577 130.684601 134.132309 137.843292 141.766708 145.852280 150.054703 154.338760 158.671219 162.979767 167.188980 171.234406 175.063370
187.892548 190.418564 192.922592 195.377747 197.754852 200.025497 202.164429 204.151688 205.974152 207.626663 209.112808 210.445068 211.644684 212.740891 213.769882 214.773193 215.795700 216.883087 218.078995 219.421539 220.939545 222.648224 224.544449 226.601440 228.763321 230.938889 233.006088 234.866013 236.451111 237.717499 238.641800 239.218140 239.455368 239.374405 239.005722 238.386917 237.560547 236.572067 235.467880 234.293594 233.092377 231.903519 230.761108 229.692795 228.718903 227.851425 227.093384 226.438217 225.869431 225.360184 224.873367 224.379623 223.907135 223.480942 223.108627 222.785141 222.497299 222.227493 221.957031 221.668823 221.349686 220.991959 220.594650 220.164047 219.713715 219.264206 218.841812 218.477142 218.203094 218.052124 218.053085 218.227661 218.586044 219.122070 219.808090 220.589081 221.413696 222.339249 223.417908 224.666061 226.071381 227.599609 229.200592 230.813644 232.372696 233.810471 235.062454 236.069839 236.782379 237.160492 237.176773 236.816681 236.079330 234.976974 233.534378 231.787277 229.781006 227.567429 225.202209 222.741074 220.235794 217.723846 215.218933 212.743942 210.334015 208.031509 205.881638 203.928619 202.212479 200.766388 199.614761 198.771698 198.240219 198.012039 198.067917 198.378662 198.906662 199.608063 200.435501 201.341522 202.282455 203.223053 204.141586 205.035522 205.928040 206.874863 207.963104 209.264282 210.816605 212.631500 214.698380 216.988983 219.461487 222.064240 224.739258 227.425293 230.060593 232.585693 234.945236 237.090118 238.978928 240.579269 241.868591 242.834991 243.477280 243.805328 243.839294 243.609451 243.154800 242.522354 241.764984 240.952118 240.191345 239.570297 239.145142 238.944427 238.973053 239.215775 239.640793 240.203171 240.848022 241.513596 242.134201 242.643066 242.974930 243.068604 242.869232 242.330673 241.417404 240.106567 238.389664 236.274307 233.785553 230.967377 227.883881 224.620285 221.256729 217.792694 214.232941 210.607559 206.964249 203.361328 199.861481 196.526642 193.413193 190.568588 188.028275 185.813828 183.931732 182.372894 181.113373 180.115219 179.329224 178.697235 178.156448 177.643433 177.100342 176.480347 175.755478 174.923599 174.018417 173.086105 172.084991 170.957199 169.656845 168.150070 166.414902 164.440948 162.228912 159.789963 157.144974 154.323547 151.362930 148.306778 145.203674 142.105621 139.066254 136.138931 133.374710 130.820282 128.515274 126.489990 124.762619 123.336403 122.196609 121.307419 120.602226 119.987007 119.399330 118.813194 118.231415 117.678604 117.194885 116.830132 116.638947 116.676270 116.993568 117.635796 118.638870 120.027885 121.815895 124.003456 126.578697 129.518066 132.787872 136.346054 140.145218 144.135834 148.270172 152.507126 156.817307 161.174149 165.509109 169.748886 173.830261 177.701096
185.906479 188.421875 190.921265 193.382599 195.780304 198.088409 200.283157 202.345093 204.260849 206.024353 207.637650 209.111176 210.463760 211.722031 212.919312 214.094330 215.289154 216.546906 217.908890 219.411377 221.081848 222.934799 224.967178 227.153183 229.438919 231.736237 233.926102 235.908112 237.612640 238.994217 240.028427 240.708786 241.043900 241.054733 240.772003 240.233780 239.483231 238.566483 237.530640 236.422043 235.284546 234.158096 233.077332 232.070404 231.157928 230.352203 229.656296 229.063660 228.557632 228.111130 227.686676 227.254837 226.845154 226.483887 226.179321 225.926758 225.712891 225.519730 225.327957 225.119690 224.880737 224.602386 224.282532 223.926376 223.546432 223.162201 222.799133 222.487167 222.258575 222.145538 222.176773 222.374130 222.748199 223.293579 223.983612 224.764633 225.585358 226.497681 227.548782 228.751938 230.093338 231.538696 233.038849 234.535202 235.964432 237.262466 238.368469 239.227402 239.792816 240.028793 239.911285 239.428741 238.582703 237.387299 235.868393 234.062103 232.013214 229.772232 227.392426 224.926239 222.421127 219.909042 217.397232 214.903305 212.458557 210.103027 207.880783 205.836121 204.010132 202.438034 201.146973 200.154419 199.467285 199.081421 198.981964 199.144043 199.534180 200.112320 200.834381 201.655380 202.533325 203.433395 204.333054 205.227402 206.135468 207.106918 208.221893 209.549103 211.125519 212.961868 215.047180 217.353180 219.838257 222.451187 225.134491 227.827652 230.469559 233.001480 235.368729 237.522842 239.422989 241.037186 242.343246 243.329483 243.994797 244.349014 244.412094 244.214020 243.793411 243.196777 242.476425 241.701874 240.983154 240.410172 240.040405 239.903046 240.002823 240.323746 240.832794 241.483292 242.218292 242.973740 243.681473 244.272171 244.678085 244.835587 244.687668 244.186295 243.294479 241.988419 240.259232 238.114883 235.581573 232.705353 229.553375 226.215012 222.775116 219.235779 215.603012 211.907623 208.197433 204.530594 200.969391 197.575241 194.403961 191.502518 188.905930 186.635590 184.697891 183.083893 181.769897 180.718521 179.881149 179.200333 178.613998 178.059326 177.479050 176.826492 176.073502 175.217194 174.289856 173.334778 172.305176 171.138840 169.787018 168.214264 166.398254 164.329208 162.009399 159.452347 156.681885 153.731094 150.641052 147.459396 144.238800 141.035187 137.905899 134.907578 132.093887 129.513519 127.207031 125.204643 123.523148 122.162994 121.104988 120.307037 119.697014 119.184341 118.711151 118.254555 117.819092 117.429932 117.126648 116.957573 116.975006 117.230881 117.773102 118.642708 119.871452 121.480186 123.477837 125.861015 128.614395 131.711517 135.116531 138.786163 142.672974 146.728607 150.908112 155.174805 159.505569 163.881271 168.237762 172.504181 176.618896 180.530380
184.209030 186.709061 189.199188 191.662186 194.076141 196.417572 198.664200 200.797134 202.802704 204.673828 206.410950 208.022415 209.524551 210.941177 212.302765 213.645004 215.007080 216.429413 217.950943 219.605972 221.420593 223.408661 225.567200 227.871552 230.269943 232.677628 234.978699 237.070633 238.881058 240.362701 241.490021 242.256042 242.669434 242.751556 242.533890 242.055450 241.360504 240.496323 239.511200 238.452591 237.365387 236.290359 235.262878 234.311584 233.457413 232.712708 232.080444 231.553650 231.115173 230.737167 230.381317 230.017868 229.678055 229.389786 229.162323 228.991302 228.863327 228.759888 228.660812 228.547119 228.403412 228.219589 227.992157 227.724930 227.429108 227.123032 226.831100 226.582397 226.408630 226.341644 226.410110 226.636124 227.030869 227.589828 228.287598 229.072098 229.891739 230.790955 231.810120 232.958359 234.220093 235.561157 236.934174 238.283508 239.549805 240.673569 241.598938 242.276031 242.663452 242.730057 242.456116 241.833771 240.867523 239.573532 237.978790 236.119461 234.039291 231.786636 229.411499 226.961884 224.479782 221.990662 219.495239 217.005844 214.549881 212.164780 209.893204 207.779190 205.864624 204.186417 202.774231 201.648743 200.820572 200.289749 200.045776 200.068192 200.327927 200.788956 201.410736 202.151184 202.970215 203.833847 204.718933 205.618408 206.547195 207.548721 208.695557 210.051880 211.652115 213.505371 215.599945 217.907562 220.387131 222.988449 225.655411 228.329071 230.950073 233.461426 235.810226 237.949646 239.840317 241.451523 242.762054 243.760880 244.447266 244.830978 244.931625 244.778381 244.408707 243.867615 243.205582 242.490448 241.832413 241.321793 241.016174 240.944534 241.111237 241.499695 242.076111 242.792847 243.591980 244.408325 245.172562 245.814270 246.264511 246.458679 246.338837 245.856201 244.973190 243.665756 241.924973 239.759171 237.195297 234.280579 231.083847 227.696732 224.206772 220.617905 216.936966 213.194641 209.438141 205.724579 202.115128 198.670013 195.444061 192.483444 189.822815 187.483490 185.472290 183.781052 182.387329 181.255234 180.337952 179.579910 178.920975 178.300049 177.661148 176.958420 176.163513 175.272354 174.314468 173.329102 172.266190 171.061218 169.663895 168.037964 166.160934 164.023499 161.628906 158.992142 156.138931 153.104507 149.932388 146.672806 143.381027 140.115570 136.936218 133.901764 131.067719 128.484024 126.191994 124.221725 122.589111 121.292618 120.309891 119.594406 119.070396 118.651405 118.284355 117.949738 117.654083 117.423302 117.296509 117.320702 117.545784 118.020660 118.789589 119.889488 121.347687 123.180496 125.392357 127.975616 130.911011 134.168884 137.710876 141.492218 145.465195 149.582703 153.802582 158.092819 162.437256 166.824860 171.196579 175.484619 179.629089 183.579269
182.819199 185.298462 187.773849 190.232986 192.657562 195.026611 197.319290 199.517242 201.606522 203.579041 205.433533 207.176254 208.820969 210.388672 211.906815 213.408066 214.928650 216.506210 218.177231 219.974060 221.921402 224.032410 226.304321 228.713669 231.211044 233.715317 236.113770 238.301102 240.201675 241.766052 242.967590 243.799026 244.269318 244.400711 244.225937 243.785461 243.125168 242.294052 241.341949 240.317841 239.267929 238.234070 237.252441 236.352173 235.554398 234.871307 234.305466 233.849167 233.484268 233.181778 232.901993 232.614563 232.352859 232.146744 232.006668 231.928665 231.899170 231.899017 231.906937 231.902634 231.869171 231.794846 231.674438 231.510178 231.311737 231.096085 230.886505 230.711166 230.601196 230.588104 230.700623 230.961227 231.381836 231.959015 232.668777 233.460770 234.282791 235.169495 236.152527 237.235947 238.402130 239.617340 240.836670 242.008545 243.078842 243.994110 244.704880 245.167801 245.347855 245.219803 244.769150 243.992462 242.897568 241.502884 239.836365 237.933884 235.837540 233.592697 231.245071 228.837173 226.404388 223.964752 221.512482 219.054642 216.614624 214.226959 211.932617 209.775009 207.796432 206.035141 204.523041 203.283768 202.331573 201.670532 201.294556 201.187805 201.325729 201.676636 202.203903 202.868713 203.633270 204.464783 205.339859 206.249359 207.204254 208.241531 209.425491 210.813965 212.437195 214.301758 216.394806 218.688034 221.141342 223.706177 226.328735 228.952667 231.521545 233.981384 236.282166 238.379883 240.237671 241.826950 243.128204 244.131607 244.837006 245.254181 245.402054 245.308502 245.009003 244.545853 243.966263 243.334457 242.758148 242.325821 242.093674 242.089645 242.317383 242.759872 243.383087 244.139450 244.971161 245.813385 246.597229 247.252731 247.711548 247.909622 247.789581 247.303223 246.413498 245.096802 243.344696 241.165771 238.587296 235.656616 232.442673 229.037048 225.527512 221.919113 218.218887 214.456635 210.678009 206.938171 203.296249 199.810593 196.534485 193.513016 190.780380 188.358109 186.253906 184.461182 182.959702 181.716263 180.687119 179.820023 179.058029 178.343002 177.621262 176.848267 175.995697 175.057617 174.059433 173.035080 171.933258 170.689468 169.253479 167.589081 165.673889 163.498840 161.067520 158.395355 155.508667 152.443420 149.243927 145.961319 142.651855 139.375076 136.191727 133.161530 130.340759 127.780014 125.520897 123.593521 122.013313 120.777763 119.862923 119.219879 118.771431 118.435791 118.164932 117.942894 117.778412 117.698380 117.741669 117.953934 118.382881 119.074341 120.068840 121.399040 123.087654 125.146202 127.574318 130.359711 133.478897 136.898560 140.577545 144.469330 148.525726 152.700699 156.955002 161.261658 165.611816 170.003387 174.383118 178.686737 182.856445 186.842346
