149.585754 150.918793 152.242889 153.511292 154.686127 155.741394 156.664444 157.457016 158.135406 158.729630 159.281143 159.841049 160.465698 161.212692 162.135254 163.276428 164.661621 166.290207 168.127350 170.093475 172.087204 174.094467 176.121277 178.166351 180.221909 182.274597 184.306244 186.294876 188.215530 190.041138 191.743439 193.293869 194.664459 195.828735 196.762589 197.445312 197.860336 197.996277 197.847809 197.416626 196.712311 195.753357 194.568008 193.195297 191.685928 190.080612 188.351608 186.482697 184.486237 182.396179 180.261261 178.139313 176.091888 174.179779 172.459244 170.978851 169.776779 168.879456 168.300049 168.038330 168.080765 168.401703 168.964661 169.725082 170.632889 171.636658 172.687637 173.745087 174.781647 175.790253 176.763290 177.616348 178.272522 178.685410 178.834656 178.721558 178.365036 177.797775 177.062744 176.209793 175.292908 174.367218 173.486771 172.702179 172.058838 171.595093 171.341171 171.317795 171.535538 171.994110 172.682251 173.577530 174.646820 175.846497 177.123611 178.405182 179.579041 180.551697 181.260513 181.670532 181.771896 181.576477 181.115234 180.434647 179.594299 178.663330 177.717712 176.837006 176.101135 175.587723 175.368149 175.505585 176.050537 177.038834 178.487259 180.391769 182.722855 185.423477 188.404602 191.543503 194.688568 197.710739 200.514420 203.031647 205.219879 207.059540 208.551605 209.715103 210.584549 211.207352 211.641144 211.951019 212.206818 212.480194 212.841797 213.358292 214.089294 215.084396 216.379883 217.995728 219.932175 222.166595 224.650040 227.303741 230.015778 232.650681 235.105209 237.301834 239.180389 240.697830 241.827866 242.560272 242.899963 242.866058 242.490448 241.816254 240.896240 239.790649 238.565186 237.288513 236.029678 234.855209 233.826157 232.994720 232.400848 232.068329 232.001114 232.178940 232.553055 233.041595 233.562500 234.143097 234.811035 235.564362 236.378891 237.214935 238.023315 238.750549 239.343430 239.752853 239.937057 239.863876 239.512573 238.874756 237.954758 236.769135 235.345551 233.720886 231.938843 230.046539 228.090500 226.112091 224.141953 222.194046 220.258850 218.294296 216.241272 214.067474 211.768814 209.363052 206.884460 204.378342 201.896667 199.493744 197.222946 195.133453 193.267990 191.660721 190.335739 189.306412 188.574890 188.132294 187.959229 188.027405 188.301071 188.739380 189.299149 189.938553 190.620407 191.317307 192.043091 192.912399 194.016800 195.400787 197.071350 199.006882 201.165115 203.490387 205.919800 208.388748 210.835510 213.205124 215.452118 217.542755 219.456207 221.184937 222.734283 224.121109 225.371735 226.518890 227.597916 228.642044 229.676941 230.714294 231.744644 232.758743 233.829971 235.028137 236.393829 237.941971 239.665207 241.537369 243.516830 245.549667 247.572754 249.517044 251.310364 252.880493 254.157867 255.078476 255.586441 255.636627 255.197327 254.252518 252.804291 250.875168 248.510513 245.780075 242.780823 239.638412 236.461975
151.106140 152.530701 153.946609 155.305801 156.568954 157.708847 158.711731 159.578476 160.324799 160.980469 161.587021 162.195908 162.864136 163.650238 164.608429 165.782883 167.200073 168.860321 170.729416 172.727905 174.754700 176.798141 178.866501 180.959793 183.070770 185.185852 187.286209 189.348557 191.346420 193.250778 195.031296 196.657196 198.098297 199.325897 200.313889 201.039597 201.484909 201.637146 201.490067 201.044861 200.311218 199.308136 198.065002 196.622696 195.034317 193.342575 191.518204 189.543503 187.430679 185.214294 182.944519 180.681015 178.487595 176.427399 174.559036 172.933456 171.590942 170.559708 169.854431 169.475922 169.411407 169.635391 170.111237 170.793808 171.632126 172.573547 173.567902 174.573059 175.560089 176.520782 177.445114 178.241882 178.827744 179.151901 179.191284 178.945984 178.435181 177.693024 176.764954 175.704224 174.568893 173.418747 172.312759 171.306595 170.450760 169.788467 169.354324 169.172913 169.257828 169.610794 170.221375 171.066483 172.110870 173.306808 174.595291 175.896301 177.094727 178.095612 178.835327 179.278290 179.414337 179.255188 178.831970 178.191330 177.393219 176.507187 175.609558 174.780273 174.099640 173.645493 173.489441 173.694687 174.311752 175.376282 176.904770 178.892807 181.310303 184.099701 187.171173 190.401260 193.638062 196.754303 199.656128 202.276917 204.574921 206.530914 208.145889 209.438507 210.442627 211.204773 211.781479 212.236603 212.638611 213.057770 213.563324 214.220551 215.087830 216.213623 217.633286 219.366150 221.412140 223.748611 226.327026 229.069580 231.865753 234.581711 237.114319 239.385590 241.334686 242.917877 244.108109 244.894440 245.281250 245.287201 244.943939 244.294617 243.392120 242.297150 241.075989 239.798157 238.533630 237.350082 236.309662 235.465744 234.859314 234.515167 234.437851 234.607422 234.974960 235.457840 235.971924 236.540054 237.185654 237.903625 238.667618 239.436646 240.161224 240.788330 241.266037 241.547165 241.592453 241.372742 240.870682 240.081451 239.013046 237.685684 236.130402 234.387070 232.501816 230.523361 228.498871 226.469116 224.462677 222.489822 220.535294 218.552490 216.488708 214.319092 212.044968 209.687607 207.283005 204.876587 202.519119 200.262512 198.156662 196.246506 194.569901 193.155762 192.022629 191.178482 190.620178 190.334106 190.296768 190.476715 190.836166 191.333694 191.927155 192.577652 193.253098 193.933640 194.640015 195.483109 196.549301 197.879410 199.478256 201.323288 203.372452 205.571152 207.858490 210.172455 212.454422 214.652908 216.726120 218.644073 220.389679 221.958801 223.360001 224.612747 225.745422 226.792007 227.788300 228.766891 229.751740 230.751541 231.752426 232.740646 233.789444 234.969223 236.320709 237.858551 239.574860 241.442780 243.419678 245.450729 247.471817 249.412918 251.200974 252.762955 254.028671 254.933624 255.421600 255.447357 254.979202 254.001328 252.516235 250.546936 248.139374 245.364105 242.318802 239.129761 235.906586
152.667831 154.176636 155.680389 157.130051 158.485336 159.717728 160.812332 161.768860 162.601974 163.340469 164.025177 164.707001 165.442596 166.290390 167.304825 168.530441 169.994370 171.697769 173.607498 175.645325 177.711441 179.795456 181.906448 184.044800 186.203247 188.367950 190.519470 192.633789 194.683380 196.638199 198.466751 200.137024 201.617615 202.878723 203.893097 204.637085 205.091721 205.243622 205.086090 204.620026 203.855072 202.810486 201.516190 200.013840 198.357697 196.591415 194.684891 192.619858 190.408371 188.085510 185.702225 183.319305 181.001892 178.814606 176.817627 175.063385 173.593658 172.438034 171.612427 171.118683 170.944733 171.065781 171.445404 172.038574 172.794052 173.658768 174.581848 175.520096 176.443588 177.342697 178.205017 178.933548 179.439850 179.669464 179.597198 179.222275 178.564133 177.658203 176.552032 175.301743 173.968719 172.616516 171.308167 170.103516 169.057114 168.216095 167.618591 167.292297 167.253174 167.504608 168.036728 168.826126 169.835739 171.014786 172.299515 173.604736 174.813538 175.830399 176.591187 177.059982 177.226318 177.101715 176.717072 176.118942 175.367081 174.530884 173.686539 172.913788 172.292725 171.901001 171.809921 172.082428 172.768753 173.904190 175.504913 177.566193 180.057663 182.921463 186.067581 189.372360 192.684357 195.878510 198.863113 201.572983 203.967224 206.027039 207.753296 209.164139 210.292618 211.184143 211.893860 212.484131 213.021805 213.575500 214.212799 214.997421 215.986282 217.226624 218.752808 220.583496 222.718323 225.134796 227.785004 230.592392 233.448242 236.220932 238.808746 241.134445 243.137650 244.774689 246.018417 246.857574 247.296158 247.352234 247.056915 246.452759 245.592133 244.535202 243.347870 242.099289 240.859268 239.695328 238.669739 237.835999 237.235413 236.893173 236.814377 236.979736 237.341003 237.816330 238.320938 238.872086 239.487793 240.159134 240.857315 241.540421 242.159042 242.661469 242.997894 243.124115 243.004395 242.613602 241.938690 240.979279 239.747772 238.268539 236.576416 234.714401 232.731003 230.676315 228.597717 226.534760 224.513184 222.538620 220.589020 218.612411 216.562393 214.421692 212.196899 209.912628 207.606308 205.323349 203.112961 201.024353 199.103729 197.391586 195.920746 194.714752 193.786636 193.138947 192.763474 192.641907 192.746887 193.044067 193.493912 194.054688 194.685532 195.350693 196.023361 196.691238 197.381653 198.200439 199.227570 200.499390 202.017929 203.759384 205.681885 207.732162 209.851593 211.981323 214.066528 216.059875 217.924149 219.634003 221.176819 222.552856 223.774536 224.864624 225.854111 226.778595 227.674438 228.573517 229.497696 230.451920 231.416946 232.373337 233.394028 234.550217 235.883057 237.407288 239.114868 240.978500 242.955002 244.988754 247.014847 248.962341 250.757309 252.325760 253.596664 254.504715 254.993057 255.015808 254.540939 253.552307 252.052368 250.064316 247.634430 244.833801 241.760941 238.543228 235.290985
154.268219 155.857742 157.447632 158.988174 160.438110 161.767868 162.961258 164.016663 164.947403 165.780960 166.556900 167.325119 168.141403 169.063492 170.145554 171.432129 172.950729 174.703384 176.658203 178.738815 180.847351 182.973892 185.127502 187.308411 189.509064 191.715240 193.906998 196.059814 198.145599 200.133667 201.991913 203.687775 205.189209 206.465866 207.489960 208.237442 208.688873 208.830597 208.655655 208.164825 207.367661 206.283417 204.942261 203.386002 201.669312 199.836075 197.855896 195.710266 193.411316 190.994385 188.510971 186.022552 183.595078 181.294174 179.181000 177.309097 175.721344 174.448425 173.507263 172.900726 172.617630 172.633850 172.913651 173.412308 174.078812 174.860001 175.704666 176.568970 177.422012 178.252869 179.046692 179.701401 180.124023 180.257080 180.073486 179.571808 178.771729 177.709869 176.435623 175.007568 173.490051 171.949890 170.453598 169.064529 167.840790 166.832855 166.081879 165.618118 165.459656 165.611176 166.063477 166.792725 167.760529 168.913528 170.184158 171.483063 172.692276 173.716156 174.490433 174.978973 175.171066 175.077942 174.730194 174.173965 173.468613 172.683105 171.893143 171.178009 170.617310 170.288147 170.261353 170.599396 171.352020 172.554123 174.221558 176.349258 178.906708 181.835922 185.046936 188.416290 191.793304 195.055359 198.112885 200.902237 203.383392 205.537872 207.366379 208.886505 210.130341 211.142059 211.975372 212.690994 213.354050 214.031403 214.788910 215.688599 216.785965 218.126938 219.744888 221.657852 223.865204 226.344711 229.049225 231.903534 234.800964 237.612442 240.238388 242.603119 244.647278 246.327850 247.617935 248.506241 248.996338 249.105820 248.864975 248.315475 247.508728 246.503860 245.365753 244.162567 242.963211 241.834457 240.837906 240.026688 239.441956 239.109009 239.033386 239.196594 239.551590 240.018097 240.511612 241.043182 241.624817 242.243378 242.867706 243.454956 243.956253 244.321548 244.503723 244.462067 244.165009 243.591995 242.734787 241.597961 240.198669 238.565735 236.737930 234.761520 232.687302 230.566605 228.446747 226.365631 224.345749 222.387466 220.461441 218.509689 216.492111 214.398926 212.241959 210.048920 207.858643 205.716187 203.669113 201.763748 200.042480 198.541214 197.287674 196.299988 195.585693 195.141937 194.955429 195.003418 195.254776 195.672424 196.215240 196.841370 197.511368 198.192871 198.864380 199.521240 200.197174 200.992233 201.979279 203.189590 204.622101 206.251617 208.036362 209.924454 211.859772 213.786911 215.655197 217.421921 219.054886 220.533798 221.851166 223.011978 224.033005 224.940750 225.769058 226.555405 227.336807 228.144424 228.997803 229.897842 230.819275 231.736435 232.721878 233.847824 235.156052 236.661682 238.356674 240.213562 242.188751 244.226059 246.259766 248.218124 250.026215 251.609100 252.894699 253.816711 254.317383 254.349976 253.881714 252.895966 251.394821 249.401321 246.961945 244.148285 241.059662 237.824707 234.554672
155.878403 157.550110 159.228241 160.862427 162.410431 163.841522 165.138138 166.297211 167.330521 168.264114 169.136215 169.995392 170.896408 171.896255 173.048615 174.397980 175.972275 177.774384 179.773911 181.896500 184.046509 186.214355 188.408875 190.630005 192.869843 195.113770 197.341446 199.527908 201.644638 203.660461 205.542831 207.258759 208.775787 210.063126 211.092682 211.839996 212.285400 212.414978 212.221542 211.705750 210.877045 209.754700 208.368835 206.761429 204.987274 203.090378 201.040237 198.818268 196.436752 193.931305 191.353821 188.766357 186.235519 183.827667 181.604889 179.621567 177.921555 176.536469 175.484268 174.768661 174.379318 174.292923 174.474304 174.879272 175.457047 176.154587 176.920380 177.710114 178.492004 179.253876 179.978470 180.558823 180.897614 180.934387 180.640305 180.013214 179.073120 177.857666 176.418045 174.815186 173.116211 171.391083 169.709595 168.138519 166.739304 165.565567 164.661423 164.059570 163.780075 163.828979 164.197632 164.861938 165.782227 166.902771 168.152451 169.438019 170.640839 171.665390 172.447418 172.950745 173.164474 173.099594 172.786362 172.270508 171.610901 170.875992 170.140839 169.484131 168.984756 168.719193 168.757599 169.161789 169.980927 171.249405 172.982605 175.175125 177.796249 180.787994 184.060547 187.490829 190.929153 194.255219 197.381546 200.245834 202.808914 205.052505 206.977127 208.599747 209.951523 211.075333 212.023514 212.855133 213.633667 214.424240 215.291046 216.294556 217.488815 218.918579 220.616318 222.599457 224.867218 227.397644 230.144409 233.033676 235.960770 238.799225 241.451767 243.844498 245.919327 247.634048 248.962173 249.892410 250.428116 250.586304 250.396500 249.899445 249.145462 248.192535 247.104370 245.947968 244.791153 243.699707 242.734436 241.947876 241.380859 241.058670 240.987228 241.148788 241.497604 241.955170 242.437363 242.949020 243.495926 244.060806 244.610107 245.100189 245.482803 245.709763 245.736771 245.526855 245.052704 244.298523 243.261108 241.949966 240.387207 238.606125 236.649475 234.566742 232.410980 230.234726 228.085007 225.998001 223.992722 222.064102 220.175247 218.261978 216.290482 214.258423 212.182755 210.094315 208.033051 206.043594 204.171677 202.460571 200.948730 199.667374 198.639053 197.876404 197.381424 197.145920 197.151550 197.371155 197.770004 198.308334 198.943695 199.634140 200.341949 201.038132 201.706696 202.350723 203.010284 203.779541 204.723969 205.869751 207.212570 208.725830 210.367798 212.088013 213.832916 215.550568 217.194458 218.726639 220.119949 221.359268 222.442200 223.378632 224.189697 224.905716 225.563385 226.202148 226.859650 227.566437 228.339691 229.176331 230.045044 230.913986 231.855453 232.942795 234.218567 235.698349 237.374222 239.218643 241.187698 243.224548 245.262878 247.230057 249.050125 250.647217 251.948151 252.885574 253.400742 253.445923 252.987595 252.008423 250.510101 248.515427 246.070984 243.248703 240.148819 236.901047 233.617691
157.379318 159.138824 160.912933 162.650406 164.307816 165.852829 167.266144 168.542816 169.692673 170.739777 171.720474 172.681671 173.676727 174.761520 175.989136 177.403870 179.034119 180.883896 182.924728 185.084976 187.271881 189.475952 191.705444 193.959854 196.230911 198.503647 200.757507 202.967285 205.104263 207.137146 209.033188 210.759216 212.282623 213.572464 214.600403 215.341843 215.776886 215.891342 215.677872 215.136856 214.277542 213.119049 211.691284 210.036072 208.208160 206.251694 204.136658 201.844971 199.389282 196.805481 194.145737 191.472366 188.852264 186.352097 184.034271 181.953690 180.154663 178.669434 177.516495 176.700272 176.211182 176.026535 176.111908 176.423615 176.911392 177.522430 178.205399 178.915756 179.621109 180.308350 180.958130 181.459030 181.709793 181.647278 181.240997 180.488174 179.408997 178.042023 176.440094 174.666153 172.789886 170.884048 169.021378 167.271729 165.699539 164.361389 163.303955 162.562271 162.158218 162.099075 162.376801 162.967148 163.829361 164.905701 166.121902 167.381546 168.566116 169.580994 170.362595 170.875122 171.107864 171.071747 170.796707 170.327972 169.723663 169.051315 168.384979 167.802094 167.380325 167.194794 167.314331 167.799500 168.698212 170.043854 171.850906 174.113510 176.800644 179.854568 183.186111 186.673523 190.169037 193.554489 196.744049 199.676453 202.313049 204.635696 206.644547 208.355988 209.800247 211.019119 212.063629 212.991516 213.864822 214.747238 215.701614 216.787170 218.056824 219.554443 221.311813 223.345993 225.656158 228.220673 230.993942 233.903290 236.845764 239.697052 242.362381 244.769882 246.863052 248.600769 249.957214 250.921356 251.496414 251.698929 251.557739 251.112579 250.412598 249.514465 248.480484 247.376175 246.268005 245.220383 244.292999 243.537445 242.993912 242.687485 242.624252 242.787277 243.132141 243.582474 244.054916 244.547729 245.060257 245.570847 246.043564 246.434128 246.695099 246.780319 246.648743 246.267319 245.613434 244.676331 243.458054 241.973434 240.249619 238.324600 236.245193 234.064148 231.836731 229.616531 227.450195 225.371948 223.396988 221.514526 219.679703 217.821960 215.913986 213.961090 211.985291 210.020187 208.106537 206.288132 204.608353 203.107040 201.818253 200.768158 199.973907 199.442490 199.170349 199.143936 199.340149 199.727585 200.268311 200.920319 201.640182 202.386398 203.123276 203.825546 204.482910 205.106079 205.741379 206.476929 207.371078 208.444946 209.691254 211.082001 212.575684 214.123367 215.674072 217.179291 218.596695 219.892944 221.045746 222.044968 222.893066 223.604553 224.204636 224.727158 225.211472 225.698715 226.227112 226.826416 227.511688 228.276016 229.082550 229.893845 230.782288 231.822662 233.058411 234.505737 236.156982 237.984558 239.944138 241.978455 244.020355 245.996216 247.829178 249.442078 250.760666 251.716354 252.249191 252.310471 251.865692 250.896744 249.404770 247.412262 244.965897 242.137955 239.029480 235.771484 232.477386
158.665878 160.520370 162.401215 164.255981 166.039627 167.717697 169.268524 170.684494 171.972702 173.154495 174.263580 175.344467 176.448441 177.629837 178.940674 180.424973 182.111679 184.006317 186.083038 188.274094 190.490555 192.722687 194.977615 197.254074 199.543396 201.830460 204.094696 206.311035 208.451050 210.483658 212.376495 214.096634 215.611710 216.890945 217.906113 218.632584 219.050339 219.145081 218.909088 218.342422 217.453888 216.262100 214.796509 213.098450 211.222260 209.212158 207.039825 204.688583 202.171921 199.526047 196.803101 194.065094 191.378540 188.809570 186.420242 184.264984 182.387894 180.821136 179.583267 178.679016 178.099197 177.821762 177.812973 178.029968 178.423294 178.940918 179.532074 180.152618 180.770157 181.371063 181.934464 182.345337 182.499420 182.331345 181.809341 180.930054 179.713806 178.199890 176.442307 174.505661 172.461578 170.384964 168.350967 166.431824 164.694427 163.197601 161.990219 161.109161 160.577820 160.404617 160.582092 161.085953 161.874832 162.889542 164.053589 165.268494 166.417282 167.407486 168.177216 168.691895 168.941528 168.937241 168.708725 168.300507 167.769623 167.182037 166.609955 166.128769 165.813812 165.737778 165.967026 166.559708 167.561554 169.003983 170.900024 173.242767 176.000992 179.117538 182.504852 186.043976 189.590714 193.028870 196.273590 199.264145 201.962067 204.349030 206.424774 208.205017 209.719208 211.008194 212.122040 213.117447 214.055450 214.998825 216.009506 217.145981 218.460526 219.996567 221.785599 223.844620 226.172928 228.749237 231.528564 234.439072 237.378860 240.225220 242.885956 245.291672 247.387878 249.134979 250.508194 251.497131 252.105118 252.348419 252.255219 251.864182 251.223129 250.387146 249.416702 248.375504 247.328003 246.336761 245.459732 244.747025 244.237717 243.956238 243.908707 244.078903 244.424042 244.870468 245.336151 245.812302 246.291245 246.746750 247.140442 247.427505 247.561615 247.499100 247.202530 246.643326 245.804016 244.679413 243.277252 241.618042 239.734344 237.669006 235.473068 233.202576 230.915024 228.664780 226.497971 224.446457 222.521286 220.705460 218.945663 217.164688 215.342194 213.491333 211.639008 209.821198 208.078888 206.454208 204.987518 203.714417 202.663986 201.856888 201.304413 201.007782 200.957855 201.136002 201.514648 202.058777 202.727798 203.478256 204.266495 205.052170 205.802200 206.495560 207.127686 207.716675 208.314560 209.003616 209.835342 210.826218 211.966263 213.226517 214.565918 215.937164 217.291962 218.585236 219.778656 220.843201 221.761154 222.526917 223.147324 223.640884 224.036377 224.370575 224.684967 225.022003 225.420105 225.908234 226.499374 227.183334 227.918442 228.662781 229.489380 230.474762 231.663605 233.072845 234.695297 236.503311 238.452240 240.484207 242.531158 244.518494 246.368011 248.001328 249.342728 250.322266 250.878616 250.961777 250.536133 249.582642 248.101746 246.115585 243.670837 240.840225 237.725693 234.459702 231.157089
159.671509 161.627594 163.625992 165.612930 167.541092 169.373367 171.084885 172.664551 174.115829 175.456390 176.716400 177.937073 179.166901 180.457977 181.860886 183.419159 185.162369 187.098007 189.203629 191.416718 193.653503 195.903412 198.171875 200.456543 202.748337 205.032104 207.287674 209.490585 211.613113 213.625153 215.495087 217.190842 218.680756 219.934631 220.924591 221.626266 222.019623 222.090088 221.829605 221.237640 220.322281 219.101318 217.603287 215.868698 213.951035 211.894684 209.674576 207.276581 204.715561 202.028061 199.265808 196.489853 193.765366 191.157089 188.725464 186.523560 184.594254 182.968750 181.665024 180.687576 180.027344 179.662796 179.561005 179.680222 179.972260 180.386429 180.873245 181.389679 181.904007 182.402725 182.864044 183.170776 183.216705 182.935104 182.293365 181.287735 179.938522 178.285416 176.383163 174.297318 172.100632 169.869385 167.680206 165.606812 163.717621 162.072998 160.723175 159.706360 159.047012 158.754425 158.821716 159.224838 159.922302 160.854324 161.943375 163.090515 164.182022 165.129120 165.872879 166.380890 166.644547 166.675613 166.503571 166.172089 165.736557 165.260757 164.814117 164.468750 164.296432 164.366089 164.740234 165.473221 166.607315 168.170883 170.174591 172.610092 175.445801 178.625656 182.064835 185.649048 189.239761 192.722534 196.012772 199.049774 201.794769 204.228958 206.351517 208.177490 209.735580 211.065964 212.217987 213.247772 214.215820 215.184479 216.215378 217.366806 218.691025 220.231506 222.019913 224.073517 226.392014 228.954514 231.716446 234.606430 237.522919 240.344009 242.980194 245.364990 247.446381 249.186859 250.563156 251.565933 252.198975 252.478561 252.432236 252.097672 251.521118 250.755829 249.860046 248.895020 247.922638 247.002975 246.191452 245.536102 245.074219 244.829178 244.806732 244.991394 245.342316 245.789185 246.252075 246.714645 247.161575 247.561783 247.874451 248.054413 248.056793 247.840897 247.373367 246.630722 245.601196 244.285629 242.697968 240.864761 238.824280 236.624512 234.320770 231.972351 229.638855 227.375351 225.226959 223.222931 221.369690 219.643555 217.982346 216.301941 214.589447 212.866104 211.163437 209.519165 207.973633 206.566452 205.334015 204.306854 203.508347 202.952942 202.645874 202.582443 202.748077 203.119370 203.664886 204.346802 205.122787 205.948868 206.782211 207.584549 208.326218 208.990768 209.579468 210.117325 210.661148 211.287643 212.042053 212.936859 213.959900 215.081680 216.261887 217.455154 218.615860 219.702271 220.679764 221.523331 222.219193 222.765686 223.173233 223.463577 223.668243 223.826065 223.979996 224.173141 224.443787 224.819916 225.312668 225.909103 226.564072 227.232452 227.988800 228.911606 230.047180 231.413406 233.003525 234.790009 236.727875 238.758575 240.813080 242.815567 244.686417 246.345749 247.716141 248.726059 249.312531 249.424133 249.023834 248.091507 246.626740 244.651306 242.211716 239.381302 236.262955 232.990936 229.681717
160.362671 162.424652 164.549393 166.681351 168.770584 170.776611 172.670593 174.437134 176.075119 177.597549 179.030090 180.409882 181.781677 183.194748 184.697754 186.333496 188.132263 190.103912 192.230392 194.455566 196.702179 198.958389 201.227219 203.505081 205.782379 208.044220 210.271179 212.439896 214.524048 216.494888 218.322281 219.975479 221.424026 222.638611 223.592087 224.260376 224.623550 224.666718 224.381302 223.765884 222.827545 221.582809 220.058960 218.295242 216.343994 214.250031 211.993011 209.562790 206.976135 204.269958 201.495163 198.711014 195.980377 193.365372 190.923752 188.705994 186.752686 185.093185 183.744095 182.709137 181.979095 181.532822 181.338364 181.355438 181.537628 181.836273 182.204025 182.599640 182.992950 183.371201 183.712402 183.898849 183.823868 183.420364 182.655441 181.525162 180.049789 178.268997 176.237549 174.021194 171.692917 169.329285 167.007202 164.800858 162.779129 161.002762 159.522583 158.377304 157.591934 157.176346 157.124191 157.411957 157.998688 158.825058 159.814041 160.868011 161.878387 162.761719 163.463303 163.953995 164.227295 164.296066 164.189728 163.950836 163.632751 163.296295 163.007111 162.832916 162.840576 163.093811 163.649719 164.557480 165.854431 167.564758 169.695801 172.237183 175.156937 178.400497 181.886993 185.508911 189.135498 192.653992 195.979431 199.050507 201.827728 204.291565 206.440399 208.288544 209.864044 211.206589 212.365082 213.395462 214.358124 215.315536 216.329575 217.458939 218.756393 220.265991 222.020096 224.036621 226.315842 228.837357 231.556915 234.403152 237.274200 240.048141 242.638199 244.981110 247.027863 248.743530 250.106949 251.110260 251.758224 252.067291 252.064682 251.787018 251.278961 250.591568 249.780487 248.904022 248.020889 247.187851 246.457214 245.874084 245.473389 245.276840 245.289551 245.496628 245.859406 246.311676 246.776382 247.229126 247.646484 247.992279 248.223358 248.294388 248.162354 247.789963 247.148529 246.220139 244.999207 243.493149 241.722443 239.720062 237.530151 235.205917 232.807007 230.395905 228.034042 225.776901 223.668365 221.734589 219.977020 218.364914 216.826920 215.271927 213.695007 212.125381 210.598846 209.154068 207.829880 206.662308 205.682770 204.915817 204.378326 204.078186 204.014175 204.175705 204.543030 205.088608 205.777893 206.571167 207.425598 208.297882 209.147171 209.938370 210.645920 211.258484 211.783005 212.250549 212.721619 213.267731 213.928757 214.713898 215.609512 216.586151 217.604675 218.621765 219.594559 220.484436 221.260132 221.900085 222.393784 222.742538 222.959503 223.068604 223.102997 223.102692 223.111145 223.171371 223.321091 223.587143 223.979095 224.482101 225.048889 225.633011 226.311188 227.164368 228.240616 229.559006 231.113480 232.876526 234.802887 236.833252 238.897552 240.918564 242.815125 244.505554 245.910675 246.957016 247.579849 247.725906 247.356705 246.450775 245.006866 243.046066 240.614944 237.787277 234.667175 231.390839 228.076736
160.733139 162.901917 165.158066 167.443970 169.706650 171.901718 173.995667 175.968002 177.812180 179.535675 181.158783 182.713638 184.240646 185.785522 187.394516 189.109558 190.961639 192.963394 195.101822 197.328552 199.573959 201.824509 204.080338 206.336288 208.582397 210.804306 212.983673 215.098831 217.125305 219.036362 220.803833 222.398819 223.792404 224.956543 225.864960 226.494049 226.823868 226.839203 226.530579 225.895554 224.939697 223.677994 222.136063 220.351562 218.375412 216.253159 213.970947 211.523956 208.931473 206.230698 203.471191 200.709671 198.005676 195.417435 192.998840 190.796600 188.847900 187.179276 185.805252 184.728210 183.938416 183.415146 183.127548 183.037170 183.099976 183.270096 183.502975 183.760178 184.013702 184.252243 184.454468 184.503952 184.295258 183.762085 182.871948 181.620956 180.029205 178.135864 175.995117 173.671906 171.238327 168.770081 166.343140 164.030762 161.901016 160.014008 158.420029 157.157440 156.251190 155.711334 155.532059 155.690720 156.147598 156.845062 157.708206 158.642883 159.547455 160.345215 160.987030 161.448029 161.724625 161.831146 161.797180 161.664093 161.482773 161.310349 161.207840 161.237427 161.459778 161.931946 162.704269 163.819244 165.307968 167.189163 169.465973 172.125397 175.134918 178.441971 181.970779 185.622482 189.276443 192.821503 196.171738 199.264786 202.060028 204.536865 206.692719 208.541077 210.109406 211.436920 212.572418 213.571869 214.496033 215.407883 216.370071 217.442184 218.678055 220.122803 221.809921 223.758301 225.969086 228.422470 231.074387 233.853165 236.656036 239.360352 241.881866 244.160904 246.151810 247.822739 249.155136 250.143219 250.793076 251.121841 251.156586 250.932999 250.494125 249.888672 249.169357 248.391068 247.608749 246.875259 246.239029 245.741577 245.414749 245.278091 245.335617 245.572952 245.953766 246.416580 246.887909 247.335083 247.726166 248.019897 248.170837 248.133850 247.868118 247.340195 246.526489 245.415100 244.007095 242.316681 240.371231 238.210205 235.883759 233.450256 230.973557 228.519073 226.149872 223.921448 221.876099 220.036545 218.398956 216.925308 215.534943 214.129959 212.713623 211.323044 209.997620 208.776138 207.694870 206.785217 206.072617 205.574768 205.301422 205.253418 205.423019 205.793884 206.341599 207.035172 207.837952 208.709579 209.607864 210.491638 211.323227 212.071854 212.716873 213.252426 213.690765 214.068024 214.446945 214.894394 215.445953 216.108521 216.867798 217.694931 218.552383 219.399078 220.194809 220.903885 221.497894 221.957962 222.276001 222.455338 222.510635 222.466827 222.357605 222.222839 222.105621 222.047989 222.086609 222.247009 222.537613 222.942505 223.414001 223.906418 224.499283 225.276306 226.287552 227.553497 229.068710 230.805969 232.719666 234.749680 236.824844 238.866486 240.791672 242.516891 243.960876 245.048218 245.712051 245.897324 245.563721 244.688492 243.269165 241.326309 238.906387 236.083679 232.963623 229.684479 226.367020
160.799179 163.071625 165.459442 167.902924 170.345688 172.738907 175.044037 177.234726 179.298325 181.236084 183.062210 184.803055 186.494019 188.176743 189.894730 191.688675 193.590347 195.615433 197.756622 199.974289 202.207474 204.440643 206.670563 208.890488 211.090164 213.255997 215.371262 217.416336 219.369141 221.205429 222.899490 224.424606 225.753754 226.860367 227.719131 228.306870 228.603638 228.593567 228.266159 227.617462 226.651337 225.380768 223.829422 222.033096 220.041260 217.900543 215.605392 213.157364 210.578857 207.907379 205.190598 202.481949 199.836487 197.307556 194.943863 192.787247 190.870438 189.216278 187.836456 186.731522 185.891068 185.294617 184.912674 184.709045 184.642670 184.671082 184.753433 184.854813 184.950211 185.030334 185.075180 184.971710 184.617508 183.948334 182.932861 181.567566 179.872147 177.884933 175.658630 173.256454 170.748459 168.208115 165.709076 163.322327 161.113800 159.141647 157.454498 156.089447 155.070679 154.408081 154.096283 154.113876 154.423141 154.969467 155.681885 156.471878 157.246338 157.936676 158.500427 158.917938 159.189240 159.330658 159.372086 159.353653 159.323441 159.334457 159.442200 159.702423 160.168365 160.889313 161.907410 163.257187 164.962296 167.034882 169.472977 172.260406 175.363937 178.733383 182.299057 185.972565 189.645309 193.207932 196.573105 199.676971 202.477524 204.952789 207.099045 208.928833 210.468979 211.758331 212.845657 213.787201 214.644333 215.480865 216.360611 217.344467 218.487732 219.837021 221.427307 223.278854 225.393845 227.753204 230.313019 233.001114 235.713348 238.325714 240.756348 242.949158 244.862198 246.467133 247.748566 248.703247 249.339127 249.674393 249.736313 249.559906 249.186584 248.662704 248.037827 247.363052 246.689117 246.064407 245.532852 245.131729 244.889221 244.822083 244.932938 245.207611 245.612274 246.090561 246.573273 247.019333 247.388290 247.633835 247.708481 247.567612 247.172974 246.495300 245.516495 244.230957 242.646576 240.784592 238.679260 236.376587 233.932556 231.410522 228.878204 226.403687 224.051254 221.876083 219.918488 218.197464 216.703720 215.391922 214.172287 212.940475 211.708008 210.519516 209.417252 208.439194 207.617920 206.979263 206.541672 206.315323 206.302246 206.496017 206.882416 207.439697 208.139389 208.947968 209.827835 210.739258 211.642151 212.498825 213.276199 213.948776 214.501709 214.934677 215.264954 215.532257 215.800064 216.131287 216.558441 217.087173 217.703415 218.379547 219.080032 219.766205 220.400452 220.949524 221.387329 221.696899 221.871521 221.915436 221.843506 221.680420 221.459030 221.217972 220.998718 220.841660 220.781738 220.843155 221.033478 221.336990 221.707260 222.101486 222.602798 223.297791 224.238724 225.447479 226.919556 228.627884 230.526627 232.554886 234.640305 236.702667 238.657349 240.418777 241.903656 243.034271 243.741760 243.968964 243.673813 242.831955 241.439789 239.517212 237.110504 234.294556 231.176086 227.895538 224.576126
160.594681 162.963165 165.477722 168.076294 170.698959 173.292297 175.812164 178.226074 180.514725 182.672623 184.707291 186.638840 188.497162 190.319351 192.145782 194.015778 195.961838 198.002853 200.137634 202.336014 204.546478 206.751251 208.943573 211.115021 213.255295 215.351852 217.389923 219.352402 221.219971 222.971283 224.583389 226.032074 227.292343 228.339218 229.148331 229.696899 229.964645 229.934937 229.595901 228.941727 227.974213 226.704041 225.152710 223.354004 221.355957 219.206894 216.910934 214.477341 211.931931 209.312454 206.664276 204.036667 201.479355 199.039642 196.760056 194.676453 192.816238 191.197662 189.829041 188.708649 187.825119 187.158340 186.680359 186.357635 186.152588 186.026901 185.944183 185.873703 185.794174 185.698730 185.569458 185.298767 184.789154 183.979752 182.841095 181.370361 179.586761 177.527237 175.242310 172.792404 170.244339 167.667953 165.133240 162.707474 160.453018 158.424728 156.668457 155.219101 154.099335 153.318405 152.871384 152.738419 152.884674 153.259796 153.798630 154.420563 155.042236 155.604187 156.071640 156.430878 156.686172 156.856277 156.971741 157.071381 157.200394 157.407150 157.741150 158.250870 158.981400 159.973038 161.258804 162.864136 164.804092 167.083405 169.694168 172.616470 175.816284 179.246017 182.842819 186.530289 190.213531 193.785202 197.156372 200.261444 203.056732 205.518723 207.642303 209.438980 210.934769 212.168182 213.187943 214.050674 214.818420 215.556122 216.328903 217.199310 218.224319 219.452423 220.920349 222.649948 224.644745 226.886475 229.331451 231.906891 234.507019 237.006073 239.324173 241.408783 243.221817 244.738800 245.947891 246.848892 247.452148 247.777344 247.852310 247.711700 247.395523 246.947754 246.414764 245.843689 245.280685 244.769287 244.348419 244.050568 243.899719 243.909317 244.080154 244.398056 244.831589 245.329849 245.828308 246.277740 246.629333 246.832047 246.836685 246.599442 246.084946 245.268448 244.137482 242.692917 240.949509 238.935486 236.691864 234.270905 231.734116 229.149475 226.588165 224.120438 221.811371 219.715363 217.870438 216.291702 214.964264 213.835709 212.807556 211.769592 210.741531 209.774841 208.913742 208.194412 207.644745 207.284012 207.122879 207.163376 207.399490 207.817474 208.396774 209.110840 209.927933 210.813019 211.728790 212.637543 213.502762 214.291641 214.976944 215.539551 215.970978 216.276596 216.478058 216.617172 216.756378 216.955444 217.245148 217.631134 218.100403 218.627258 219.178513 219.717987 220.210449 220.624756 220.936386 221.129349 221.197296 221.144043 220.983459 220.738556 220.440002 220.123932 219.829163 219.593491 219.449738 219.420624 219.513428 219.713593 219.977951 220.268768 220.673309 221.281174 222.146835 223.293777 224.718323 226.393768 228.273972 230.297363 232.390396 234.471390 236.453949 238.250458 239.775482 240.949188 241.700439 241.970062 241.714111 240.906616 239.542786 237.641724 235.249573 232.441742 229.326172 226.045517 222.725525
160.166946 162.619598 165.250504 167.995377 170.790695 173.578308 176.308380 178.941986 181.453049 183.828949 186.070251 188.190491 190.213654 192.172089 194.102768 196.043457 198.027283 200.076416 202.196014 204.365707 206.543854 208.710464 210.855148 212.967987 215.038803 217.056473 219.008453 220.880463 222.656342 224.317902 225.845123 227.216370 228.408829 229.398972 230.163315 230.679276 230.926025 230.885742 230.544861 229.895477 228.936920 227.677383 226.135971 224.344498 222.349838 220.202515 217.917694 215.513107 213.018509 210.471680 207.915298 205.393799 202.950684 200.626343 198.456177 196.469193 194.686584 193.121506 191.778229 190.652542 189.731964 188.996750 188.420746 187.973373 187.621170 187.330551 187.070084 186.814011 186.545212 186.259705 185.942245 185.492630 184.820236 183.868790 182.611557 181.046600 179.192581 177.084564 174.770157 172.305923 169.754272 167.180145 164.648438 162.221252 159.956055 157.903137 156.104355 154.591446 153.384872 152.492889 151.910889 151.620956 151.591843 151.778824 152.124420 152.557907 153.006744 153.421204 153.774826 154.060455 154.287186 154.476578 154.660004 154.875229 155.164398 155.571167 156.138672 156.907593 157.914185 159.189163 160.755539 162.628860 164.814819 167.309952 170.099777 173.160294 176.456329 179.943085 183.565201 187.259155 190.945175 194.518219 197.887711 200.986252 203.768311 206.208649 208.300644 210.054535 211.495438 212.661331 213.600800 214.370789 215.034073 215.656677 216.305161 217.043762 217.931396 219.018494 220.343781 221.930923 223.784927 225.888519 228.198364 230.641098 233.109329 235.475250 237.660538 239.615997 241.307373 242.714294 243.828873 244.654388 245.204010 245.499481 245.569611 245.449005 245.176636 244.794266 244.345123 243.872330 243.417358 243.018570 242.709564 242.517624 242.462082 242.552673 242.787888 243.153305 243.619736 244.141678 244.659683 245.116745 245.456238 245.622757 245.565887 245.242966 244.621750 243.682159 242.417496 240.835007 238.956131 236.815872 234.461609 231.951431 229.351883 226.735031 224.174866 221.743362 219.505753 217.515305 215.807480 214.393250 213.252335 212.325531 211.506409 210.679749 209.872971 209.143631 208.536896 208.086105 207.813583 207.731125 207.841034 208.136765 208.604111 209.222107 209.964325 210.800003 211.695129 212.614273 213.521759 214.383255 215.167267 215.847244 216.403030 216.822769 217.104843 217.260300 217.314331 217.309280 217.304688 217.358047 217.499939 217.737076 218.058502 218.441055 218.854172 219.264236 219.638138 219.946304 220.165100 220.278519 220.279449 220.170059 219.961868 219.674805 219.336075 218.978088 218.635880 218.343994 218.132477 218.022720 218.022049 218.118332 218.273483 218.457031 218.760773 219.277267 220.063232 221.143707 222.515991 224.153687 226.010498 228.024185 230.120132 232.215286 234.221481 236.049210 237.610977 238.824768 239.617340 239.927490 239.709351 238.935394 237.599564 235.720169 233.343140 230.544281 227.432785 224.153275 220.834030
159.572388 162.093338 164.825119 167.701340 170.655045 173.623398 176.550980 179.392487 182.114914 184.698608 187.137070 189.437103 191.616760 193.703430 195.730560 197.734207 199.747986 201.797302 203.893524 206.026276 208.163864 210.284073 212.373138 214.419907 216.414551 218.347626 220.209167 221.987961 223.671127 225.243759 226.688889 227.987457 229.118652 230.060333 230.789642 231.283783 231.521149 231.482452 231.151993 230.519440 229.581406 228.343414 226.822128 225.047592 223.065674 220.929886 218.667511 216.305420 213.877380 211.421234 208.976471 206.582123 204.274857 202.087357 200.047150 198.175720 196.487518 194.989944 193.683014 192.559723 191.606415 190.803818 190.127792 189.551132 189.044815 188.580536 188.132370 187.679993 187.210907 186.724213 186.207825 185.570877 184.731354 183.638840 182.269974 180.624054 178.719070 176.587769 174.274109 171.829895 169.311920 166.779037 164.289719 161.899567 159.659775 157.614899 155.801712 154.247849 152.970932 151.977753 151.264023 150.813980 150.600830 150.586624 150.723297 150.951889 151.211243 151.461716 151.685410 151.882233 152.066376 152.262589 152.503403 152.825699 153.268707 153.871338 154.670227 155.698135 156.982162 158.542984 160.393250 162.537994 164.973099 167.686325 170.656235 173.854324 177.244125 180.783630 184.425156 188.118774 191.800598 195.368362 198.729996 201.816345 204.580048 206.993988 209.049881 210.756500 212.137848 213.231155 214.084686 214.755508 215.306915 215.805939 216.320465 216.916397 217.654510 218.587341 219.755630 221.184937 222.881958 224.830566 226.987976 229.280457 231.599106 233.814209 235.848358 237.655258 239.204468 240.479782 241.477463 242.204727 242.678009 242.921539 242.965637 242.845337 242.598846 242.266083 241.887360 241.501892 241.146454 240.854202 240.653198 240.565262 240.604752 240.777344 241.078873 241.494263 241.996307 242.544724 243.085251 243.553772 243.886566 244.024597 243.916580 243.521378 242.810150 241.767487 240.392303 238.698044 236.712570 234.477081 232.044815 229.479050 226.850723 224.235199 221.708725 219.344193 217.206589 215.347565 213.799652 212.569809 211.632538 210.922440 210.326080 209.724152 209.151321 208.670074 208.325577 208.147324 208.151184 208.340851 208.709854 209.242767 209.917328 210.705582 211.575912 212.494095 213.424805 214.333481 215.187332 215.956787 216.616776 217.148178 217.538986 217.785431 217.893112 217.878479 217.769501 217.607254 217.446640 217.343811 217.330566 217.415909 217.591782 217.838013 218.127045 218.427719 218.708786 218.941681 219.102844 219.175354 219.150177 219.026642 218.812561 218.523560 218.182053 217.815582 217.454468 217.129181 216.866760 216.687057 216.598160 216.591385 216.635468 216.709320 216.909485 217.331421 218.033905 219.043518 220.358505 221.952896 223.780228 225.777817 227.870071 229.972656 231.995850 233.848358 235.440796 236.689102 237.518051 237.864471 237.680740 236.937714 235.628143 233.769531 231.407486 228.618118 225.511642 222.234543 218.917313
158.873108 161.443008 164.255646 167.242737 170.334122 173.462585 176.567337 179.597000 182.511932 185.285553 187.904495 190.369034 192.691269 194.893661 197.006119 199.062836 201.097855 203.139481 205.205200 207.294144 209.384415 211.451889 213.479706 215.455795 217.371063 219.218018 220.989426 222.677292 224.272110 225.762268 227.133698 228.369781 229.451538 230.357849 231.066101 231.553146 231.796051 231.773636 231.467865 230.865570 229.960449 228.755341 227.264465 225.516266 223.556152 221.441376 219.211945 216.904266 214.556259 212.205582 209.888321 207.637589 205.482758 203.448273 201.553253 199.811264 198.229446 196.809326 195.546326 194.430557 193.447266 192.577698 191.799973 191.090546 190.425171 189.781174 189.138672 188.482986 187.806442 187.111450 186.389420 185.560501 184.552841 183.322968 181.851654 180.139603 178.204086 176.075119 173.792328 171.401962 168.954239 166.500702 164.092239 161.776779 159.598068 157.593781 155.794632 154.223343 152.894058 151.811768 150.972351 150.362610 149.960770 149.736725 149.653458 149.665314 149.722733 149.795883 149.875702 149.969162 150.095825 150.283951 150.567459 150.982635 151.566071 152.352112 153.371109 154.647888 156.200455 158.039459 160.166946 162.577377 165.256577 168.183228 171.328720 174.659775 178.138443 181.725403 185.380615 189.067856 192.739471 196.296494 199.645706 202.716446 205.459488 207.845901 209.865555 211.525574 212.848572 213.870728 214.639694 215.212311 215.652161 216.026917 216.405594 216.855515 217.439270 218.211258 219.214264 220.475861 222.004440 223.785278 225.776352 227.903915 230.057983 232.107040 233.974106 235.615204 237.003433 238.126709 238.985687 239.591736 239.964996 240.132614 240.126938 239.983902 239.741409 239.438004 239.111359 238.797058 238.527451 238.330460 238.228653 238.238327 238.368622 238.620911 238.988037 239.453888 239.992844 240.569473 241.134476 241.617676 241.949142 242.066956 241.919525 241.467575 240.685715 239.563202 238.104355 236.328430 234.269104 231.973160 229.499023 226.914352 224.293610 221.714691 219.255280 216.988556 214.978638 213.275162 211.907562 210.878815 210.158524 209.675888 209.311661 208.943451 208.612473 208.384964 208.305023 208.397385 208.670792 209.120346 209.730545 210.477127 211.329987 212.254730 213.215118 214.174515 215.097244 215.950867 216.706680 217.341202 217.836884 218.183273 218.377319 218.423859 218.335907 218.135117 217.851135 217.522232 217.196854 216.930832 216.758545 216.692413 216.727951 216.848618 217.029907 217.243088 217.458420 217.647751 217.786865 217.856979 217.846085 217.749496 217.570145 217.318130 217.010025 216.667389 216.315033 215.978683 215.682053 215.443619 215.272598 215.164810 215.097595 215.060806 215.156097 215.481277 216.097260 217.031967 218.284576 219.829544 221.620499 223.594269 225.674561 227.775909 229.807312 231.675903 233.290558 234.565491 235.423645 235.800034 235.645416 234.929169 233.642868 231.803192 229.455353 226.675629 223.575027 220.301559 216.987747
158.133316 160.730194 163.599960 166.672745 169.875565 173.137268 176.392181 179.583313 182.664825 185.603729 188.380112 190.988083 193.434082 195.735764 197.919571 200.017822 202.064713 204.091232 206.120422 208.160370 210.198349 212.208725 214.172104 216.075912 217.912170 219.675522 221.361603 222.965683 224.481628 225.900864 227.212097 228.400833 229.449539 230.337784 231.042847 231.540619 231.806564 231.817200 231.551773 230.994080 230.134827 228.973953 227.523544 225.810699 223.881027 221.796127 219.609100 217.366028 215.108871 212.875000 210.696762 208.601227 206.609970 204.739029 202.998856 201.394730 199.926453 198.589447 197.374573 196.269043 195.257034 194.320541 193.440048 192.595917 191.768997 190.942459 190.102600 189.240646 188.353897 187.447952 186.517960 185.496475 184.323166 182.962494 181.399765 179.637497 177.692017 175.590363 173.367340 171.062805 168.719604 166.381073 164.089417 161.883972 159.799973 157.867325 156.109802 154.544540 153.181625 152.023972 151.067627 150.302048 149.711060 149.273376 148.964203 148.752625 148.600143 148.486557 148.411163 148.388016 148.442139 148.605362 148.913467 149.402313 150.106339 151.055725 152.274826 153.781021 155.583511 157.683167 160.071716 162.733185 165.643387 168.772049 172.083267 175.538849 179.099274 182.727509 186.390945 190.066696 193.723236 197.265350 200.599243 203.653076 206.375992 208.737183 210.724609 212.343506 213.614838 214.573364 215.265747 215.748154 216.084015 216.341248 216.589600 216.897522 217.329010 217.940231 218.775818 219.865295 221.218872 222.823364 224.637863 226.589020 228.566376 230.437103 232.123886 233.584518 234.795181 235.747818 236.447495 236.909958 237.159393 237.226273 237.145447 236.954224 236.690842 236.392822 236.095764 235.832047 235.629807 235.512146 235.496216 235.592850 235.805954 236.132431 236.561829 237.076660 237.652313 238.257660 238.848068 239.348312 239.683487 239.789536 239.615143 239.123245 238.291931 237.114899 235.601562 233.776367 231.678223 229.358734 226.880524 224.314789 221.738632 219.231567 216.871902 214.732376 212.875702 211.349075 210.178787 209.363846 208.869598 208.620605 208.493088 208.362823 208.276627 208.303223 208.484589 208.839966 209.370422 210.062241 210.890778 211.823288 212.822098 213.847137 214.858261 215.817383 216.689621 217.445648 218.062088 218.522583 218.818192 218.947937 218.918381 218.743454 218.443512 218.044952 217.578201 217.077087 216.582108 216.149628 215.817947 215.603806 215.507065 215.515076 215.606522 215.754959 215.931763 216.108704 216.260117 216.364502 216.405899 216.374634 216.267700 216.088684 215.847229 215.558197 215.240143 214.913605 214.598694 214.312592 214.066193 213.860687 213.683395 213.536667 213.527069 213.754654 214.281937 215.138214 216.323547 217.812866 219.559921 221.501251 223.560059 225.650085 227.679214 229.553360 231.179962 232.471741 233.350052 233.748413 233.616089 232.921173 231.654099 229.830734 227.495819 224.725647 221.631699 218.363159 215.054123
157.416321 160.016434 162.916870 166.046600 169.330261 172.693359 176.065994 179.386169 182.602585 185.676468 188.582016 191.307602 193.854477 196.235840 198.474808 200.601807 202.651031 204.655701 206.643677 208.631149 210.613785 212.564804 214.463058 216.295959 218.056931 219.742981 221.352692 222.884583 224.335541 225.699951 226.968857 228.129532 229.165405 230.056259 230.778824 231.307556 231.615845 231.677612 231.469055 230.970764 230.170288 229.064819 227.664459 225.995483 224.104233 222.057358 219.921082 217.750885 215.592682 213.483276 211.451172 209.517242 207.695251 205.992630 204.411285 202.948120 201.595703 200.343414 199.177597 198.082764 197.042130 196.038635 195.055237 194.076385 193.088135 192.079666 191.043442 189.976669 188.881531 187.766678 186.631027 185.420593 184.087631 182.605240 180.963760 179.167526 177.232056 175.181091 173.044128 170.854263 168.646149 166.454254 164.311386 162.247391 160.288330 158.455475 156.765152 155.228287 153.850494 152.632401 151.570053 150.655807 149.879501 149.229263 148.693680 148.257172 147.891937 147.586349 147.347580 147.196457 147.163391 147.283981 147.595886 148.135193 148.934525 150.020447 151.412064 153.119827 155.144760 157.478638 160.103333 162.993027 166.113846 169.426849 172.889008 176.457291 180.090210 183.752914 187.419479 191.079712 194.717422 198.241791 201.559143 204.596832 207.302673 209.644073 211.606964 213.194534 214.425751 215.333588 215.963181 216.369629 216.615601 216.768784 216.899109 217.075668 217.363510 217.820160 218.491974 219.410233 220.586990 222.010834 223.642258 225.408905 227.200592 228.883713 230.380096 231.648483 232.667709 233.433487 233.955185 234.253098 234.355667 234.297073 234.115097 233.848969 233.537735 233.218536 232.925415 232.688080 232.530991 232.472733 232.525436 232.694672 232.979187 233.371323 233.857224 234.417542 235.028198 235.661530 236.277130 236.795868 237.139069 237.241516 237.052765 236.538071 235.679047 234.473587 232.935654 231.094315 228.992844 226.686768 224.242065 221.732391 219.236542 216.834763 214.605164 212.619324 210.938004 209.605682 208.645370 208.052505 207.788559 207.774490 207.883362 207.990326 208.146713 208.422546 208.856674 209.462250 210.232346 211.144348 212.164719 213.252487 214.363220 215.451691 216.474945 217.394211 218.176498 218.796539 219.237259 219.490372 219.556305 219.444168 219.170547 218.758575 218.235855 217.632935 216.980148 216.305405 215.640060 215.041748 214.553848 214.198227 213.979584 213.889404 213.909637 214.015884 214.180283 214.373947 214.569122 214.740906 214.868561 214.936523 214.935074 214.860382 214.714554 214.505051 214.243607 213.945312 213.626556 213.303360 212.988678 212.689819 212.405167 212.150726 212.037766 212.168060 212.605576 213.380676 214.494308 215.921829 217.617264 219.517120 221.544281 223.611938 225.627197 227.495117 229.122070 230.419540 231.307693 231.718796 231.600876 230.920853 229.668182 227.857925 225.534302 222.773346 219.686798 216.424545 213.121719
156.781906 159.360733 162.263855 165.419434 168.750397 172.179550 175.633499 179.046143 182.361496 185.535812 188.538239 191.352127 193.974014 196.413208 198.689651 200.832001 202.874146 204.851074 206.794708 208.728073 210.654175 212.545746 214.380585 216.146713 217.839233 219.457718 221.003677 222.478607 223.882309 225.211624 226.459534 227.614563 228.660583 229.577118 230.339767 230.921127 231.292145 231.423676 231.288696 230.864395 230.135223 229.095764 227.754349 226.137009 224.291458 222.289993 220.211563 218.120605 216.066574 214.085602 212.202347 210.431381 208.778870 207.243881 205.819794 204.495590 203.256760 202.086899 200.968155 199.882523 198.812500 197.742020 196.656799 195.545349 194.398941 193.212723 191.985291 190.719604 189.422531 188.105560 186.771194 185.379623 183.896393 182.303635 180.597061 178.783020 176.876053 174.896500 172.868362 170.817459 168.770004 166.751022 164.783447 162.887085 161.078339 159.369461 157.768723 156.280533 154.905807 153.642609 152.487015 151.434372 150.480652 149.623962 148.866730 148.209366 147.633514 147.135086 146.728302 146.440308 146.306610 146.366531 146.659958 147.223526 148.088654 149.279007 150.809143 152.683563 154.895996 157.429932 160.258408 163.346313 166.650970 170.125259 173.719299 177.385330 181.079910 184.769730 188.434906 192.076614 195.693024 199.198181 202.499268 205.523453 208.217499 210.547150 212.496307 214.065887 215.272583 216.147141 216.732697 217.082642 217.258347 217.326645 217.357040 217.418701 217.577194 217.891052 218.407928 219.160736 220.163406 221.406387 222.851974 224.429428 226.029663 227.519165 228.818237 229.885773 230.702789 231.268326 231.595993 231.710541 231.644882 231.437195 231.128525 230.760574 230.373688 230.005310 229.688492 229.450867 229.313812 229.291992 229.392960 229.617325 229.958969 230.405701 230.940063 231.540604 232.183075 232.842438 233.481796 234.019363 234.374039 234.480331 234.289124 233.768265 232.902740 231.694290 230.160858 228.335388 226.264648 224.007202 221.631256 219.212112 216.829163 214.562500 212.489243 210.679245 209.190750 208.065369 207.322830 206.955200 206.920822 207.138016 207.478058 207.816528 208.208359 208.723526 209.397018 210.235413 211.223663 212.330460 213.513733 214.724945 215.913483 217.029938 218.029266 218.873062 219.530975 219.982742 220.218323 220.238129 220.052429 219.680771 219.149979 218.492203 217.742004 216.933517 216.096115 215.250610 214.418198 213.658569 213.021027 212.533173 212.204849 212.031876 211.999313 212.084625 212.260330 212.496445 212.762589 213.029785 213.271942 213.467010 213.597870 213.652863 213.625931 213.516724 213.330032 213.075165 212.764893 212.414154 212.038345 211.651443 211.263626 210.905182 210.691788 210.726425 211.074188 211.766357 212.804504 214.164642 215.801071 217.650421 219.635590 221.669464 223.658859 225.508179 227.123138 228.414459 229.301392 229.715256 229.603134 228.931030 227.687500 225.886810 223.572586 220.820511 217.742111 214.487488 211.192398
156.283844 158.817078 161.694458 164.843887 168.187103 171.644989 175.141586 178.607529 181.983215 185.220871 188.285370 191.155975 193.825333 196.299149 198.594696 200.738831 202.765045 204.709457 206.607147 208.486633 210.356934 212.190994 213.966415 215.672348 217.306000 218.869537 220.367264 221.803452 223.180435 224.497055 225.747711 226.921555 228.002472 228.969070 229.795273 230.451385 230.905502 231.125259 231.080017 230.743652 230.097504 229.133713 227.859390 226.300629 224.507217 222.557648 220.542847 218.535477 216.588104 214.736053 213.000046 211.388672 209.900803 208.527466 207.254059 206.062088 204.930420 203.837296 202.761078 201.681580 200.580780 199.443863 198.259277 197.019608 195.721298 194.365173 192.955795 191.501541 190.013580 188.505829 186.984238 185.423386 183.802322 182.112518 180.355103 178.538498 176.676346 174.785446 172.884262 170.991196 169.123764 167.297424 165.525009 163.816116 162.177170 160.611191 159.118301 157.696152 156.340866 155.047745 153.812973 152.634720 151.515381 150.463043 149.494293 148.625320 147.846054 147.158493 146.582916 146.151978 145.905991 145.887924 146.140076 146.699997 147.598557 148.857315 150.487274 152.487991 154.847061 157.540833 160.534515 163.784988 167.241455 170.849426 174.552826 178.299301 182.043396 185.752747 189.412613 193.033966 196.627808 200.113525 203.400055 206.414917 209.104233 211.432266 213.380859 214.948547 216.149384 217.011475 217.575439 217.892395 218.021759 218.028809 217.981979 217.949890 217.998077 218.185501 218.560806 219.158295 219.993637 221.059311 222.319885 223.706772 225.113083 226.406143 227.504211 228.365692 228.973007 229.328262 229.448929 229.364227 229.111465 228.733078 228.273758 227.778015 227.288116 226.842285 226.473312 226.207428 226.063644 226.053268 226.179871 226.439606 226.821793 227.309921 227.882874 228.516724 229.186462 229.868668 230.529236 231.084824 231.453293 231.569672 231.386642 230.874802 230.022263 228.834229 227.331970 225.551544 223.542358 221.364975 219.088959 216.790146 214.547714 212.440781 210.544739 208.927063 207.643280 206.731857 206.209351 206.064865 206.254227 206.694061 207.255219 207.814774 208.430145 209.170197 210.065338 211.115433 212.297363 213.571503 214.887848 216.190979 217.424973 218.537018 219.480911 220.219315 220.725342 220.984360 220.993805 220.763138 220.312744 219.672592 218.879547 217.974564 216.998611 215.988861 214.972900 213.963638 212.971512 212.058762 211.281265 210.672699 210.248260 210.007996 209.940048 210.023407 210.230652 210.530289 210.888947 211.273117 211.651001 211.993622 212.276199 212.478851 212.587296 212.593201 212.494278 212.294159 212.002029 211.631973 211.202026 210.733124 210.247665 209.790390 209.480865 209.422852 209.682114 210.290604 211.250580 212.538528 214.109253 215.899673 217.832901 219.821976 221.773575 223.592026 225.182724 226.455917 227.330429 227.736938 227.621887 226.950531 225.710724 223.915985 221.609283 218.865662 215.796204 212.550659 209.264893
155.968216 158.432739 161.256821 164.368454 167.688889 171.137924 174.637909 178.117279 181.513748 184.776581 187.867523 190.762527 193.451080 195.936111 198.232468 200.365387 202.367706 204.276108 206.127853 207.955399 209.772507 211.552872 213.274872 214.929382 216.515930 218.039322 219.506546 220.924286 222.296967 223.624847 224.903214 226.121338 227.262390 228.303513 229.216553 229.969055 230.525940 230.851273 230.910873 230.675156 230.122528 229.243042 228.042786 226.548553 224.812958 222.920853 220.974213 219.052856 217.212036 215.486008 213.891754 212.432297 211.099548 209.877243 208.743439 207.672791 206.638260 205.613358 204.573074 203.495422 202.362289 201.160110 199.880157 198.519012 197.077988 195.563354 193.985168 192.356766 190.693176 189.010345 187.317200 185.602524 183.858795 182.086670 180.292709 178.487411 176.683487 174.894333 173.132797 171.410019 169.735001 168.113602 166.548676 165.039673 163.583191 162.173096 160.801331 159.458908 158.137054 156.828476 155.529236 154.240402 152.970566 151.737747 150.572449 149.506195 148.535477 147.666901 146.925598 146.348892 145.981400 145.869553 146.058136 146.586060 147.484314 148.773270 150.461365 152.544418 155.005157 157.814148 160.930191 164.303223 167.875687 171.586609 175.374252 179.182159 182.962708 186.684067 190.335388 193.935654 197.506821 200.974106 204.248978 207.259964 209.952942 212.290939 214.253784 215.837418 217.053024 217.925705 218.493027 218.803207 218.913071 218.885681 218.787704 218.686478 218.646942 218.727936 218.978653 219.434479 220.112793 221.008194 222.087799 223.285980 224.498917 225.595825 226.492493 227.145996 227.539688 227.678177 227.582489 227.286041 226.830627 226.262909 225.631485 224.984070 224.365295 223.814789 223.365677 223.043549 222.865677 222.840820 222.969193 223.243103 223.647736 224.162491 224.762634 225.421524 226.112778 226.813553 227.491638 228.063324 228.446533 228.577667 228.411621 227.921616 227.098801 225.951279 224.503036 222.792435 220.870651 218.799332 216.648499 214.493622 212.412872 210.483566 208.778839 207.363419 206.289749 205.593140 205.287170 205.358322 205.760574 206.409821 207.177628 207.943420 208.766159 209.712601 210.808182 212.046005 213.395264 214.808533 216.228622 217.594055 218.844482 219.924515 220.787552 221.398041 221.733093 221.783981 221.555954 221.067520 220.349030 219.440598 218.388748 217.242661 216.049194 214.847870 213.663910 212.501831 211.361053 210.306793 209.401764 208.685852 208.179535 207.887009 207.799194 207.896347 208.150879 208.529465 208.995468 209.510681 210.037369 210.539566 210.984818 211.345016 211.597733 211.726776 211.722977 211.584503 211.317093 210.934235 210.456711 209.912460 209.336029 208.786362 208.386307 208.239853 208.413101 208.938477 209.818726 211.030884 212.530289 214.254379 216.126740 218.060806 219.963593 221.739578 223.294281 224.537979 225.389313 225.778748 225.652283 224.974792 223.733444 221.941177 219.640152 216.904678 213.845001 210.610031 207.335190
155.871033 158.245850 160.990921 164.034866 167.299026 170.702911 174.168121 177.621902 181.000412 184.250992 187.333282 190.220978 192.901215 195.374710 197.654434 199.764130 201.735764 203.606064 205.413361 207.192581 208.960678 210.692871 212.369141 213.982666 215.535538 217.035110 218.490875 219.911530 221.303070 222.666733 223.997940 225.285492 226.511322 227.650574 228.672516 229.541626 230.219254 230.665863 230.843643 230.719650 230.269531 229.481537 228.361237 226.936584 225.263474 223.433533 221.558258 219.723648 217.986877 216.381104 214.919785 213.600693 212.409653 211.323837 210.314804 209.351227 208.400940 207.433426 206.420975 205.340286 204.173279 202.907944 201.538269 200.064651 198.492966 196.834457 195.104126 193.319733 191.499619 189.661102 187.815750 185.965881 184.116837 182.278107 180.461472 178.679382 176.943741 175.264648 173.649582 172.102768 170.624893 169.212753 167.859558 166.555054 165.286362 164.038483 162.795639 161.542343 160.265152 158.954147 157.605331 156.222519 154.820190 153.425842 152.083298 150.838501 149.692673 148.655380 147.755219 147.033325 146.537933 146.318710 146.423019 146.891479 147.755844 149.036194 150.739517 152.859238 155.374588 158.251801 161.444702 164.897858 168.548126 172.329117 176.174423 180.023788 183.827438 187.553513 191.193771 194.773239 198.322754 201.773621 205.040695 208.054138 210.760010 213.120316 215.112946 216.731201 217.983139 218.890427 219.487152 219.818085 219.936798 219.903458 219.782272 219.638718 219.536331 219.533371 219.679108 220.009720 220.544067 221.279053 222.184662 223.198853 224.221878 225.125824 225.823669 226.270599 226.450226 226.369141 226.051575 225.534851 224.865005 224.093033 223.271500 222.451599 221.680740 221.000473 220.444916 220.039627 219.800995 219.735901 219.841949 220.108261 220.516388 221.042038 221.656982 222.331589 223.037628 223.751740 224.442688 225.027359 225.424896 225.573578 225.430832 224.972534 224.192474 223.101181 221.724716 220.102997 218.288101 216.342026 214.334335 212.339401 210.433640 208.692184 207.185287 205.974686 205.109604 204.622253 204.523453 204.797470 205.397110 206.238312 207.194275 208.147629 209.157883 210.288940 211.561096 212.960876 214.450348 215.975037 217.471405 218.872864 220.115433 221.141998 221.906235 222.374832 222.529160 222.366638 221.900146 221.156998 220.177078 219.010010 217.711334 216.337723 214.941193 213.563034 212.225723 210.925232 209.650192 208.468948 207.451035 206.642380 206.068558 205.737595 205.642838 205.765656 206.077957 206.544510 207.125275 207.777344 208.457153 209.121979 209.731796 210.250778 210.648590 210.901703 210.994385 210.919739 210.680420 210.289322 209.770157 209.157654 208.497894 207.863342 207.379486 207.150024 207.241013 207.685150 208.485489 209.619690 211.043610 212.695480 214.499527 216.369873 218.214142 219.937454 221.445755 222.649719 223.468185 223.831665 223.686157 222.996185 221.748596 219.955658 217.658752 214.931290 211.882278 208.659470 205.397171
156.017700 158.284683 160.928009 163.877213 167.054474 170.379700 173.774658 177.166412 180.490601 183.693771 186.734436 189.584991 192.231125 194.672089 196.919296 198.995224 200.930878 202.762375 204.528168 206.264053 207.988754 209.679657 211.319244 212.903397 214.436966 215.929871 217.393646 218.838776 220.272156 221.695419 223.103638 224.484467 225.817993 227.077057 228.227829 229.231430 230.045502 230.626801 230.933853 230.930649 230.590240 229.899445 228.863678 227.512573 225.905853 224.141769 222.339951 220.591156 218.953949 217.460190 216.120087 214.926895 213.861023 212.894058 211.992081 211.118744 210.237717 209.315277 208.321625 207.232605 206.030609 204.705185 203.253006 201.677994 199.990158 198.205185 196.342361 194.423218 192.468689 190.497070 188.521866 186.557892 184.622437 182.733200 180.906784 179.157532 177.496475 175.930725 174.462830 173.090530 171.806870 170.600174 169.454773 168.351318 167.268188 166.182144 165.070145 163.910751 162.686096 161.383896 160.000015 158.540756 157.026047 155.492157 153.995316 152.594345 151.293442 150.103333 149.054794 148.191696 147.565186 147.227829 147.229599 147.613190 148.411682 149.645721 151.322052 153.432953 155.955658 158.853653 162.077316 165.567368 169.256470 173.074112 176.949966 180.820633 184.634201 188.358139 191.985596 195.545532 199.075348 202.512695 205.776535 208.799286 211.527573 213.922653 215.960587 217.631989 218.941559 219.907303 220.559326 220.938461 221.094467 221.083954 220.968063 220.809647 220.670349 220.607239 220.669159 220.892792 221.298340 221.884995 222.625977 223.463348 224.302460 225.019180 225.523575 225.768311 225.736801 225.437057 224.896027 224.154602 223.262833 222.275864 221.250290 220.240997 219.298416 218.466492 217.780884 217.267822 216.943451 216.813599 216.874023 217.111282 217.503967 218.024475 218.641235 219.321609 220.034882 220.756348 221.454727 222.048248 222.458115 222.625168 222.509323 222.089020 221.360382 220.335861 219.042953 217.522430 215.826599 214.016998 212.162140 210.334702 208.608841 207.056961 205.746353 204.735504 204.070465 203.780487 203.873871 204.333221 205.110626 206.122681 207.245178 208.364212 209.539200 210.830704 212.253891 213.789154 215.392166 217.002258 218.550568 219.966187 221.182510 222.141342 222.797073 223.119034 223.092941 222.722122 222.026733 221.042297 219.817429 218.410507 216.885056 215.304413 213.724960 212.189224 210.716721 209.295151 207.902985 206.611633 205.497131 204.611038 203.983536 203.626144 203.534317 203.690231 204.065140 204.621841 205.317001 206.103302 206.931580 207.752853 208.520142 209.190384 209.726105 210.097015 210.281525 210.268127 210.056793 209.660095 209.104385 208.430817 207.696152 206.985123 206.425125 206.119080 206.132751 206.498764 207.220490 208.276093 209.622131 211.197662 212.927765 214.727539 216.505569 218.167801 219.621048 220.776642 221.554016 221.884064 221.712936 221.005188 219.747345 217.951126 215.657150 212.937653 209.900375 206.691269 203.443207
156.421326 158.565811 161.088303 163.919662 166.983353 170.200470 173.493729 176.790985 180.028320 183.152466 186.121933 188.908646 191.497711 193.887527 196.088531 198.122040 200.017944 201.811325 203.539749 205.238419 206.926498 208.583984 210.196762 211.763809 213.292831 214.796112 216.287064 217.777313 219.274307 220.779434 222.286758 223.782379 225.244034 226.641739 227.938370 229.091400 230.054718 230.781311 231.226318 231.350632 231.125229 230.535706 229.587845 228.313263 226.775925 225.080536 223.353165 221.688004 220.144257 218.752457 217.519852 216.435852 215.476471 214.608658 213.794128 212.992661 212.164688 211.274139 210.289886 209.187469 207.949951 206.568573 205.042526 203.378937 201.591461 199.699570 197.726166 195.695770 193.631241 191.551239 189.470642 187.415329 185.413254 183.489456 181.664825 179.955338 178.371368 176.917328 175.591309 174.385315 173.285538 172.272751 171.323318 170.409805 169.502747 168.571564 167.586670 166.521271 165.353622 164.069229 162.663788 161.145889 159.540283 157.891022 156.265381 154.733398 153.300308 151.976288 150.792923 149.795761 149.038147 148.575211 148.459381 148.735672 149.439133 150.591812 152.201340 154.260040 156.744644 159.617477 162.827087 166.311783 170.001572 173.823059 177.703018 181.575409 185.386261 189.101898 192.715561 196.258026 199.770920 203.198273 206.463852 209.502869 212.262894 214.704727 216.802689 218.544678 219.931992 220.978622 221.710434 222.163849 222.384293 222.424301 222.341278 222.194931 222.044388 221.945007 221.944778 222.080505 222.373581 222.825531 223.412979 224.082718 224.745941 225.283325 225.601913 225.651535 225.414841 224.900757 224.138519 223.172089 222.055237 220.847061 219.608093 218.396881 217.267227 216.265717 215.430038 214.787735 214.355362 214.138443 214.131577 214.319565 214.678574 215.178223 215.783844 216.459732 217.172318 217.894562 218.594284 219.191620 219.610550 219.794586 219.706329 219.326553 218.653275 217.700439 216.496338 215.082077 213.509537 211.839355 210.138367 208.477142 206.927338 205.558380 204.434464 203.610855 203.130615 203.020233 203.285889 203.908829 204.840973 206.000168 207.265106 208.525711 209.840668 211.266998 212.815033 214.459686 216.151047 217.823303 219.403183 220.816528 221.994751 222.879181 223.425400 223.605377 223.408981 222.845078 221.940369 220.737762 219.293549 217.673752 215.948776 214.187592 212.450180 210.779755 209.192932 207.669815 206.179657 204.796722 203.602829 202.654633 201.986298 201.612259 201.529770 201.721527 202.158096 202.800400 203.602036 204.511688 205.475235 206.438019 207.347046 208.152878 208.811737 209.287506 209.553467 209.594299 209.407608 209.005844 208.417847 207.690353 206.889679 206.111145 205.483307 205.107941 205.050171 205.342468 205.988327 206.966385 208.233978 209.731064 211.383759 213.108368 214.814590 216.409622 217.801285 218.901962 219.631912 219.922699 219.720886 218.991196 217.720001 215.918640 213.626831 210.915619 207.891174 204.697342 201.465118
157.082718 159.093903 161.480728 164.175735 167.104080 170.188705 173.353989 176.529327 179.652267 182.670609 185.543640 188.243851 190.756500 193.079712 195.223373 197.207932 199.061981 200.819168 202.515305 204.183685 205.842545 207.475174 209.071350 210.633591 212.172455 213.702438 215.238449 216.792862 218.373123 219.979813 221.605576 223.234360 224.841248 226.392990 227.848999 229.162979 230.285065 231.164627 231.753433 232.009750 231.902603 231.416901 230.559021 229.362976 227.897125 226.272476 224.619705 223.034927 221.577438 220.276276 219.136261 218.143600 217.270859 216.481537 215.734055 214.985458 214.194016 213.322174 212.338165 211.217712 209.944855 208.512573 206.922409 205.184265 203.314926 201.336990 199.276169 197.159241 195.010300 192.847794 190.687363 188.564194 186.515335 184.572083 182.759064 181.093613 179.585556 178.236938 177.042130 175.988144 175.055389 174.218170 173.445969 172.704544 171.957581 171.168320 170.301559 169.325943 168.216248 166.956192 165.541351 163.982147 162.307495 160.568100 158.840607 157.204330 155.663651 154.226669 152.924454 151.803101 150.917542 150.324921 150.080078 150.230560 150.813812 151.854111 153.360855 155.327789 157.732498 160.537567 163.691238 167.131119 170.785858 174.580399 178.439636 182.295532 186.092133 189.794144 193.393784 196.921432 200.420715 203.842026 207.114471 210.176437 212.976898 215.476364 217.647583 219.475815 220.958801 222.106445 222.940033 223.491272 223.800827 223.916656 223.891968 223.782791 223.645203 223.532364 223.491028 223.557800 223.755081 224.086624 224.532761 225.045380 225.542267 225.909729 226.051956 225.915588 225.482147 224.761063 223.783279 222.595428 221.254578 219.823441 218.366302 216.945435 215.617920 214.433395 213.431900 212.642776 212.083618 211.760300 211.667023 211.787445 212.096039 212.560043 213.142075 213.803360 214.507187 215.223404 215.918060 216.513550 216.936966 217.134689 217.071838 216.731308 216.112610 215.230667 214.114212 212.804062 211.351364 209.815247 208.260773 206.756134 205.370270 204.169662 203.215485 202.560013 202.243500 202.290024 202.704010 203.465790 204.527435 205.808334 207.190369 208.567230 209.996521 211.531754 213.178940 214.908264 216.665314 218.380066 219.975937 221.376328 222.511383 223.322449 223.766388 223.817749 223.470200 222.737411 221.651764 220.262421 218.632080 216.833130 214.941589 213.031021 211.164093 209.384476 207.705963 206.102066 204.534149 203.078934 201.823120 200.827545 200.129654 199.746277 199.675995 199.901825 200.393692 201.110779 202.004105 203.018890 204.096878 205.178696 206.206223 207.124771 207.885452 208.447327 208.779526 208.863571 208.695267 208.287094 207.669952 206.895462 206.037750 205.200882 204.513840 204.076950 203.954437 204.178375 204.752396 205.655548 206.845917 208.264465 209.838547 211.485672 213.116974 214.640991 215.966934 217.008362 217.686646 217.934174 217.698242 216.943802 215.657288 213.849579 211.559647 208.857254 205.846741 202.669739 199.454926
157.989166 159.860077 162.100876 164.645966 167.422577 170.355911 173.372726 176.404663 179.391357 182.282578 185.039185 187.634933 190.055878 192.300507 194.378540 196.309738 198.121429 199.845337 201.514832 203.160202 204.797562 206.413925 208.003571 209.572708 211.134796 212.706314 214.303299 215.938477 217.618774 219.343552 221.103577 222.880234 224.645554 226.362946 227.988129 229.471024 230.758087 231.795166 232.530991 232.921432 232.933990 232.553131 231.786240 230.669876 229.276993 227.724396 226.145569 224.637329 223.258362 222.036194 220.973572 220.054306 219.248474 218.517151 217.816772 217.102570 216.331711 215.466064 214.473923 213.331573 212.024368 210.546967 208.903030 207.104965 205.172028 203.129227 201.004364 198.825668 196.617874 194.398636 192.183731 190.015778 187.939209 185.990341 184.196838 182.577118 181.140549 179.887299 178.808685 177.887711 177.100067 176.414764 175.795807 175.203323 174.595551 173.930573 173.168732 172.274857 171.221054 169.989456 168.575516 166.991196 165.268753 163.464233 161.661972 159.948334 158.325134 156.797043 155.393295 154.159744 153.152023 152.428909 152.047516 152.057999 152.500610 153.402496 154.775803 156.616714 158.904877 161.604568 164.665207 168.024979 171.612640 175.352676 179.169006 182.992188 186.764481 190.448532 194.034378 197.550293 201.039642 204.458969 207.743195 210.834229 213.682709 216.249130 218.504822 220.432434 222.026215 223.291779 224.245773 224.914841 225.334625 225.548157 225.604034 225.554123 225.451126 225.345520 225.282471 225.298080 225.415588 225.640961 225.958298 226.324905 226.665833 226.873642 226.849960 226.538116 225.918213 224.999695 223.814804 222.412354 220.852249 219.200455 217.524780 215.890976 214.359573 212.983215 211.804703 210.855484 210.154755 209.709320 209.513596 209.550812 209.794250 210.209381 210.756409 211.393585 212.080811 212.784302 213.467438 214.055054 214.477478 214.683929 214.641830 214.335800 213.766586 212.949661 211.913742 210.699097 209.355728 207.941223 206.518524 205.153519 203.912476 202.859146 202.051849 201.540176 201.361923 201.539200 202.075027 202.949142 204.114075 205.490875 206.964615 208.432465 209.950821 211.569901 213.292084 215.083832 216.887146 218.628952 220.230179 221.612656 222.705841 223.451416 223.807495 223.750961 223.278656 222.408264 221.176682 219.638046 217.860199 215.920349 213.898926 211.872833 209.906784 208.044510 206.297470 204.633743 203.008408 201.500046 200.199142 199.169708 198.451691 198.063629 198.005096 198.259293 198.795456 199.571457 200.536179 201.632172 202.797897 203.970352 205.087494 206.090652 206.926971 207.551865 207.931351 208.044617 207.886215 207.468674 206.824646 206.009460 205.103455 204.217300 203.479660 202.989182 202.809006 202.970764 203.478027 204.310242 205.426315 206.768173 208.264450 209.834091 211.389725 212.841400 214.099823 215.079987 215.704468 215.906738 215.634842 214.854263 213.551468 211.737076 209.449219 206.756393 203.761047 200.602264 197.406342
159.115372 160.842682 162.931427 165.317886 167.931824 170.700989 173.554855 176.427994 179.262741 182.011368 184.637039 187.115311 189.433640 191.591354 193.598373 195.473877 197.243958 198.938156 200.586838 202.216263 203.839600 205.447876 207.040268 208.626862 210.223877 211.849579 213.520874 215.250366 217.044144 218.899887 220.806091 222.741302 224.674393 226.565109 228.365540 230.021851 231.476898 232.673264 233.556946 234.081696 234.213776 233.937607 233.261703 232.225464 230.906342 229.426453 227.920532 226.484741 225.176620 224.022202 223.022568 222.159775 221.402405 220.710114 220.038345 219.341705 218.577072 217.706528 216.699005 215.531921 214.191956 212.675537 210.988281 209.144531 207.165573 205.078125 202.911423 200.694397 198.451736 196.200012 193.954422 191.763107 189.676132 187.733582 185.965393 184.390869 183.019012 181.848495 180.868347 180.058533 179.391129 178.831161 178.338409 177.868698 177.376190 176.815033 176.142075 175.319366 174.316849 173.115540 171.710739 170.115570 168.364822 166.518661 164.667206 162.901703 161.219986 159.622086 158.134399 156.801590 155.679398 154.827835 154.306000 154.166794 154.453552 155.196808 156.412125 158.099121 160.240616 162.803726 165.740280 168.990341 172.483948 176.146210 179.900909 183.677780 187.417450 191.080276 194.653122 198.160446 201.643509 205.064789 208.365204 211.490540 214.393265 217.034073 219.383026 221.420273 223.136581 224.533325 225.622299 226.425049 226.971954 227.300858 227.455399 227.483063 227.432724 227.351959 227.283981 227.264206 227.316437 227.448837 227.649338 227.880859 228.076157 228.134674 227.955734 227.479401 226.684113 225.579071 224.197296 222.589325 220.817459 218.950577 217.059616 215.213654 213.476486 211.903931 210.541595 209.423401 208.570526 207.991165 207.680527 207.621964 207.788147 208.143219 208.645309 209.249908 209.913376 210.597824 211.263382 211.837143 212.252625 212.461700 212.433823 212.154999 211.626801 210.864990 209.897964 208.765198 207.515427 206.204590 204.893616 203.646149 202.526047 201.594543 200.907532 200.512299 200.444672 200.725098 201.355606 202.315674 203.558380 205.006470 206.547943 208.083023 209.666840 211.346924 213.122742 214.957962 216.792023 218.549789 220.150604 221.515366 222.573288 223.266510 223.554382 223.415634 222.849594 221.876938 220.537994 218.890503 217.005981 214.965118 212.851379 210.744034 208.709061 206.790100 204.996750 203.293137 201.629608 200.085983 198.755310 197.703735 196.972885 196.582367 196.532410 196.806213 197.372513 198.188156 199.200592 200.350403 201.573837 202.805344 203.980209 205.037003 205.920212 206.582779 206.988663 207.115509 206.957108 206.526077 205.856415 205.006134 204.059906 203.132812 202.352676 201.816223 201.585495 201.691452 202.137619 202.903870 203.949738 205.218246 206.639359 208.133392 209.614655 210.994751 212.185974 213.104843 213.675308 213.832047 213.523926 212.717010 211.398010 209.577209 207.292084 204.609711 201.630630 198.491394 195.315643
160.422958 162.006287 163.940567 166.164215 168.609406 171.206848 173.889145 176.593979 179.266907 181.863205 184.348648 186.701233 188.910217 190.976089 192.909210 194.728470 196.458572 198.126816 199.760056 201.379913 202.995865 204.603180 206.206253 207.819046 209.460449 211.150314 212.906128 214.740097 216.657028 218.652771 220.713165 222.813812 224.920151 226.988358 228.966782 230.798035 232.421509 233.776749 234.807281 235.465012 235.715332 235.542770 234.957245 234.001007 232.756012 231.349091 229.914780 228.547607 227.303467 226.206894 225.257660 224.436752 223.711945 223.042557 222.383789 221.690506 220.920151 220.035690 219.007202 217.813492 216.442810 214.893311 213.172287 211.295761 209.286438 207.172272 204.983154 202.748245 200.491653 198.228470 195.972839 193.776627 191.693771 189.767105 188.028091 186.496643 185.181458 184.080246 183.180374 182.459625 181.887512 181.426315 181.032776 180.659760 180.258392 179.780151 179.179443 178.416229 177.459030 176.287979 174.898346 173.303986 171.541534 169.674011 167.795639 166.000641 164.281601 162.632980 161.077591 159.658157 158.429993 157.453888 156.790848 156.496399 156.617249 157.187622 158.227188 159.739578 161.711685 164.114395 166.903000 170.020462 173.399078 176.965408 180.643921 184.363968 188.064789 191.704071 195.264923 198.766632 202.246735 205.673401 208.993698 212.157379 215.118973 217.839523 220.287933 222.441986 224.289032 225.826218 227.060516 228.008270 228.694489 229.151657 229.418365 229.537369 229.553604 229.511414 229.451874 229.409485 229.408539 229.459229 229.553360 229.659637 229.718704 229.637375 229.313019 228.682541 227.722626 226.441910 224.873901 223.070404 221.095718 219.021194 216.920639 214.866165 212.924728 211.155212 209.606155 208.314102 207.302505 206.581345 206.147034 205.983490 206.063248 206.349548 206.798752 207.363785 207.997452 208.657410 209.300079 209.854507 210.257263 210.462524 210.441452 210.181122 209.683731 208.964905 208.052673 206.985519 205.810974 204.583282 203.361603 202.207535 201.182831 200.346619 199.752731 199.446655 199.462540 199.819763 200.519592 201.541458 202.839066 204.336746 205.925018 207.506653 209.135696 210.857452 212.669312 214.533096 216.386612 218.153488 219.752197 221.103241 222.135895 222.792847 223.034348 222.840622 222.212662 221.173218 219.764877 218.047729 216.095627 213.991455 211.820557 209.663574 207.587189 205.634872 203.814957 202.088821 200.403885 198.840424 197.492920 196.428604 195.690002 195.297272 195.250916 195.534073 196.115128 196.950333 197.986237 199.162277 200.413406 201.672699 202.873825 203.953842 204.855743 205.531143 205.942871 206.067810 205.899307 205.450241 204.755432 203.874634 202.895035 201.934265 201.118668 200.543060 200.268234 200.324524 200.715332 201.420776 202.401169 203.600601 204.950226 206.371918 207.781540 209.092331 210.218262 211.077423 211.595154 211.707382 211.363953 210.531555 209.197098 207.370758 205.089172 202.418198 199.456482 196.337906 193.183395
161.862167 163.302963 165.083054 167.142899 169.417252 171.839890 174.346664 176.878708 179.384979 181.824005 184.164658 186.387527 188.483917 190.455811 192.314194 194.077744 195.769897 197.415436 199.037582 200.652832 202.266556 203.878372 205.498016 207.143326 208.835831 210.596771 212.443924 214.388885 216.435059 218.576080 220.795166 223.064682 225.346710 227.593781 229.750595 231.756241 233.546936 235.059372 236.234756 237.023453 237.390228 237.319855 236.823792 235.947174 234.776276 233.442276 232.078400 230.776733 229.591202 228.544861 227.636429 226.846375 226.142303 225.483658 224.826294 224.125961 223.341202 222.436386 221.383118 220.161835 218.762466 217.184830 215.437714 213.538544 211.511063 209.383957 207.187408 204.950302 202.695709 200.437088 198.187103 195.999893 193.931946 192.027832 190.320038 188.828873 187.562836 186.518936 185.683456 185.032761 184.534683 184.149582 183.832275 183.533585 183.202728 182.789352 182.246201 181.531937 180.614044 179.472122 178.101379 176.516235 174.754425 172.880951 170.992722 169.185349 167.445374 165.761017 164.150970 162.655472 161.329041 160.232986 159.429932 158.978104 158.927612 159.316696 160.169357 161.493866 163.281723 165.508286 168.132950 171.102325 174.351730 177.809845 181.402298 185.058472 188.716293 192.330750 195.880585 199.379074 202.858871 206.293579 209.636414 212.841202 215.864624 218.668182 221.219757 223.494858 225.477463 227.160568 228.546387 229.646011 230.479065 231.072632 231.460098 231.679474 231.771515 231.777252 231.735458 231.679565 231.634232 231.611633 231.607407 231.596069 231.526352 231.312698 230.850800 230.074631 228.959061 227.511932 225.766998 223.777039 221.608002 219.333374 217.029541 214.771423 212.628967 210.664062 208.928192 207.460587 206.287140 205.419846 204.856628 204.582306 204.569626 204.781219 205.171997 205.692352 206.291733 206.923080 207.538757 208.069550 208.454712 208.650421 208.629288 208.379227 207.902679 207.215195 206.344147 205.327148 204.210434 203.046814 201.893814 200.811264 199.859131 199.094818 198.570541 198.330231 198.406967 198.819168 199.567719 200.632111 201.966751 203.497253 205.116318 206.728775 208.387695 210.136795 211.972107 213.854218 215.720154 217.492844 219.090515 220.433609 221.451630 222.087753 222.303009 222.078461 221.416275 220.340408 218.894745 217.140656 215.153336 213.016739 210.817184 208.635956 206.540039 204.572678 202.741425 201.006210 199.312683 197.741089 196.386292 195.315842 194.572464 194.176514 194.128403 194.411240 194.993240 195.830338 196.868668 198.047256 199.300552 200.561035 201.761841 202.839447 203.736328 204.403641 204.803879 204.913651 204.726395 204.255112 203.535141 202.627060 201.619293 200.630295 199.784592 199.175140 198.861420 198.873047 199.213303 199.862625 200.781967 201.916397 203.198410 204.551300 205.892487 207.136887 208.200119 209.001816 209.468826 209.538269 209.160980 208.304367 206.955612 205.124664 202.847549 200.188843 197.245270 194.148132 191.015686
163.371307 164.671295 166.298340 168.194931 170.298538 172.545929 174.876343 177.234436 179.572647 181.852997 184.047470 186.139389 188.122360 189.999893 191.783752 193.492355 195.147980 196.772903 198.386520 200.000000 201.614441 203.233826 204.873291 206.554535 208.301620 210.137085 212.078918 214.137970 216.316071 218.604614 220.984024 223.423508 225.881638 228.307388 230.641922 232.820877 234.777328 236.445282 237.763824 238.681900 239.163666 239.194412 238.787125 237.989746 236.892883 235.631683 234.337494 233.099487 231.969498 230.969101 230.096176 229.330856 228.640900 227.986404 227.324112 226.611053 225.807281 224.878754 223.798843 222.549728 221.123093 219.520309 217.751678 215.835724 213.797119 211.664993 209.469528 207.239029 204.995483 202.750427 200.514893 198.344437 196.297302 194.419220 192.743408 191.290405 190.068558 189.074402 188.293427 187.701035 187.263840 186.940918 186.685715 186.447617 186.174530 185.814774 185.319992 184.647873 183.765259 182.651291 181.301163 179.729660 177.975357 176.104538 174.216049 172.405975 170.654373 168.942947 167.285873 165.720779 164.301025 163.088333 162.146896 161.537521 161.313766 161.518005 162.178772 163.309204 164.905685 166.948395 169.401260 172.214905 175.327988 178.671707 182.173157 185.761917 189.374741 192.963821 196.503342 200.000000 203.481033 206.925232 210.292007 213.539276 216.625885 219.513870 222.170151 224.567993 226.688126 228.519424 230.059326 231.313797 232.297012 233.030640 233.542877 233.866898 234.039230 234.097549 234.078262 234.013626 233.928619 233.837372 233.739258 233.614716 233.420517 233.078857 232.484085 231.567215 230.301315 228.693481 226.777451 224.606857 222.249023 219.779465 217.276917 214.818954 212.478424 210.320099 208.398376 206.755264 205.419144 204.404129 203.709824 203.322083 203.214066 203.347977 203.677368 204.150406 204.712982 205.313416 205.899796 206.404419 206.768997 206.951569 206.925919 206.680634 206.218353 205.554352 204.715454 203.738281 202.667953 201.555923 200.458206 199.433105 198.539032 197.831879 197.362473 197.173584 197.297272 197.751373 198.536438 199.632095 200.993439 202.547256 204.188095 205.822495 207.502731 209.271317 211.123291 213.018585 214.893707 216.671387 218.269806 219.609528 220.620422 221.246048 221.447998 221.207993 220.528870 219.435303 217.971909 216.200760 214.197617 212.047043 209.835709 207.645172 205.542450 203.570618 201.736755 200.000000 198.305084 196.731873 195.375000 194.301865 193.554993 193.154587 193.100998 193.377167 193.951233 194.779053 195.806732 196.973236 198.212952 199.458359 200.642609 201.702194 202.579620 203.226120 203.604263 203.690826 203.479401 202.983200 202.237885 201.304260 200.271194 199.257050 198.384338 197.744064 197.394485 197.364517 197.657242 198.253372 199.114563 200.186844 201.403931 202.690567 203.965729 205.145981 206.148575 206.894684 207.312592 207.340714 206.930862 206.051117 204.688950 202.854187 200.582184 197.936295 195.011368 191.936157 188.826172
164.918839 166.077667 167.551132 169.283813 171.215851 173.287155 175.440353 177.623657 179.793152 181.914230 183.962097 185.922928 187.792496 189.575928 191.285767 192.940247 194.560303 196.165756 197.772125 199.385208 201.001694 202.629822 204.289917 206.007492 207.809006 209.718292 211.753494 213.924744 216.232346 218.665497 221.201935 223.807770 226.438232 229.038849 231.547333 233.896042 236.015030 237.835693 239.295105 240.340851 240.936569 241.067963 240.749512 240.031937 239.009918 237.822388 236.598450 235.424301 234.349487 233.394104 232.555191 231.812622 231.134445 230.481461 229.811523 229.083023 228.257614 227.303085 226.194580 224.916168 223.461334 221.833099 220.043213 218.111389 216.063141 213.927963 211.735992 209.514908 207.285385 205.057037 202.839081 200.688263 198.664398 196.814316 195.171814 193.757675 192.580124 191.635223 190.907806 190.372330 189.994354 189.731766 189.536743 189.357452 189.140533 188.833130 188.385880 187.755630 186.908569 185.823502 184.495544 182.939850 181.195694 179.330612 177.445175 175.635712 173.875748 172.140442 170.439438 168.807526 167.296890 165.969467 164.890945 164.124664 163.727585 163.746109 164.213425 165.147507 166.549759 168.405273 170.682632 173.336639 176.309464 179.535019 182.941940 186.460190 190.025406 193.587021 197.114578 200.608047 204.088989 207.541397 210.930893 214.219482 217.368271 220.339828 223.100143 225.620316 227.877792 229.857391 231.551743 232.961655 234.095856 234.970596 235.608795 236.038788 236.292816 236.405136 236.409698 236.337601 236.214066 236.055161 235.864044 235.626984 235.308945 234.839951 234.113113 233.056686 231.641953 229.875214 227.790222 225.441345 222.897278 220.235382 217.536652 214.881287 212.344864 209.995041 207.889023 206.071533 204.573410 203.410919 202.585266 202.083466 201.879089 201.933960 202.200409 202.624298 203.148178 203.715744 204.270859 204.747421 205.089661 205.257507 205.225937 204.984299 204.535370 203.894257 203.087097 202.149612 201.125687 200.065399 199.023254 198.055908 197.220169 196.570404 196.155930 196.018280 196.188553 196.683823 197.504410 198.630035 200.016464 201.591782 203.252426 204.906784 206.606277 208.392090 210.258301 212.164200 214.045929 215.826065 217.422836 218.757111 219.759079 220.372879 220.560669 220.304871 219.609009 218.498474 217.018555 215.231949 213.214951 211.052612 208.831879 206.634460 204.527328 202.553329 200.719055 198.982910 197.288696 195.715729 194.358276 193.283386 192.533371 192.128235 192.068161 192.336029 192.899963 193.715790 194.729660 195.880600 197.103134 198.329849 199.494034 200.532349 201.387497 202.010895 202.365295 202.427689 202.191849 201.671234 200.901627 199.944077 198.887604 197.850250 196.952530 196.283630 195.900558 195.831558 196.079559 196.625519 197.431717 198.445160 199.600739 200.824570 202.037170 203.156677 204.101898 204.795563 205.167328 205.156845 204.716904 203.816208 202.442551 200.605637 198.340164 195.708282 192.803040 189.750687 186.664154
166.597137 167.610947 168.926453 170.490555 172.246277 174.136887 176.108643 178.113525 180.111328 182.071060 183.971161 185.800690 187.557617 189.248657 190.886948 192.490494 194.078751 195.668930 197.272476 198.889725 200.512619 202.152740 203.834793 205.587479 207.439331 209.415253 211.533630 213.804016 216.225540 218.785645 221.459869 224.211853 226.994095 229.749283 232.412354 234.912949 237.178650 239.138733 240.728577 241.894638 242.600037 242.830795 242.602585 241.968231 241.025726 239.916626 238.767105 237.659622 236.641144 235.730072 234.922546 234.198288 233.525803 232.866928 232.180908 231.427917 230.571671 229.582062 228.436554 227.121445 225.632309 223.974136 222.160339 220.211929 218.155289 216.020309 213.836868 211.631699 209.423904 207.220551 205.028519 202.905487 200.912659 199.097839 197.495377 196.126221 194.998489 194.107834 193.438477 192.964020 192.649078 192.450485 192.319260 192.202438 192.045547 191.794724 191.399643 190.816391 190.010574 188.960709 187.661835 186.129410 184.403397 182.552383 180.678482 178.878204 177.118729 175.368759 173.633102 171.943481 170.350479 168.915771 167.706116 166.786942 166.218307 166.050446 166.321030 167.052902 168.252670 169.910538 172.000168 174.481003 177.299255 180.392059 183.690216 187.124512 190.629822 194.152954 197.658752 201.140030 204.612091 208.064072 211.467987 214.790115 217.994003 221.042908 223.902023 226.540375 228.932220 231.058243 232.906342 234.472015 235.758469 236.776367 237.543152 238.082092 238.420959 238.590317 238.621490 238.544205 238.383789 238.158142 237.874207 237.524246 237.081604 236.484634 235.625809 234.431076 232.870270 230.948959 228.700821 226.180832 223.458771 220.613541 217.728073 214.884750 212.161514 209.628555 207.345551 205.359680 203.703979 202.396652 201.440521 200.823624 200.520050 200.491364 200.688843 201.056427 201.533554 202.059738 202.575134 203.015747 203.328918 203.476883 203.436325 203.197556 202.763809 202.149979 201.381607 200.493301 199.527527 198.532593 197.561005 196.667313 195.906158 195.329697 194.985260 194.912506 195.141022 195.686798 196.549545 197.709137 199.122131 200.718399 202.397079 204.069244 205.784882 207.583206 209.456940 211.364517 213.241638 215.010986 216.591095 217.903458 218.879105 219.463181 219.618973 219.330032 218.601089 217.458633 215.949036 214.135925 212.096344 209.915863 207.681793 205.475861 203.364822 201.390900 199.559708 197.828369 196.139099 194.570190 193.215179 192.140625 191.388474 190.978531 190.910919 191.168549 191.719666 192.520309 193.516891 194.648773 195.850815 197.055969 198.197876 199.213577 200.046112 200.647186 200.979874 201.021347 200.765549 200.226044 199.438629 198.464325 197.391998 196.339142 195.424576 194.735931 194.329178 194.232010 194.447189 194.955887 195.720917 196.690033 197.799179 198.975647 200.141174 201.215271 202.118103 202.773682 203.112885 203.076416 202.617889 201.706604 200.330627 198.499527 196.247452 193.635559 190.755264 187.730667 184.672424
168.472717 169.335678 170.486603 171.875092 173.447479 175.150726 176.935074 178.756531 180.578903 182.374969 184.126556 185.825546 187.472183 189.074524 190.646301 192.204941 193.768280 195.350571 196.959045 198.588303 200.225159 201.882889 203.589111 205.374664 207.269501 209.299347 211.482864 213.829376 216.337357 218.993286 221.771423 224.633957 227.531738 230.405792 233.189331 235.810364 238.194946 240.271011 241.972855 243.246170 244.053711 244.381546 244.245895 243.700760 242.845856 241.823669 240.755814 239.720139 238.760361 237.892792 237.112656 236.399704 235.723190 235.046448 234.330750 233.538681 232.636673 231.597519 230.401581 229.038040 227.505142 225.810287 223.968903 222.003540 219.941513 217.812958 215.647263 213.469803 211.297348 209.133682 206.982361 204.901443 202.953110 201.185928 199.634567 198.320175 197.250748 196.421616 195.816483 195.408386 195.161163 195.030838 194.967621 194.917648 194.825638 194.636887 194.300430 193.771729 193.015976 192.011429 190.753159 189.256760 187.562714 185.740433 183.893158 182.117325 180.374222 178.626205 176.873169 175.143143 173.484406 171.957596 170.629654 169.567383 168.833252 168.480927 168.552216 169.074844 170.060699 171.505630 173.388824 175.675186 178.315872 181.252106 184.417831 187.745453 191.169769 194.635345 198.102173 201.555374 205.002914 208.439041 211.842361 215.183823 218.429581 221.543915 224.491470 227.239334 229.758713 232.026260 234.025085 235.745300 237.184464 238.347351 239.245712 239.897400 240.325333 240.556030 240.617844 240.538773 240.344009 240.053131 239.676849 239.213547 238.645355 237.919586 236.929352 235.599106 233.897751 231.830261 229.430237 226.752869 223.868591 220.857269 217.803085 214.789932 211.897430 209.197586 206.751984 204.609634 202.805405 201.359116 200.274948 199.541977 199.134827 199.015091 199.133377 199.432098 199.848343 200.318192 200.778870 201.169479 201.441284 201.559723 201.503769 201.265305 200.848297 200.267700 199.548370 198.723663 197.834167 196.925903 196.048676 195.254059 194.593567 194.116165 193.866165 193.880417 194.186127 194.797470 195.713150 196.912994 198.354706 199.970612 201.664093 203.350128 205.076447 206.879181 208.748993 210.643143 212.497055 214.233597 215.772186 217.035568 217.956329 218.481430 218.576111 218.225891 217.437408 216.239059 214.678802 212.821671 210.745819 208.537491 206.284348 204.067978 201.954453 199.984848 198.163101 196.443985 194.767166 193.209030 191.861847 190.791306 190.038834 189.623993 189.546967 189.790924 190.324524 191.104401 192.077637 193.184311 194.360077 195.538666 196.654480 197.645279 198.454697 199.034988 199.349609 199.376007 199.108231 198.559753 197.766129 196.787872 195.713181 194.658569 193.741562 193.048706 192.635269 192.528519 192.731094 193.224228 193.971130 194.920090 196.007736 197.162155 198.306061 199.359894 200.244812 200.885818 201.214691 201.172897 200.714737 199.809982 198.446915 196.635010 194.408081 191.826431 188.980316 185.992081 182.970718
